 0.231706076399633  0.217134630908301 -0.486571757159307 0.581022571545454 1775644107.20002
 0.203683753898896  0.174981885511692 -0.513735133093991 0.579680531702311 1775644107.21183
 0.250546751925083  0.196294507623498 -0.479843896341987 0.575808452074143 1775644107.226
 0.361379368475697  0.211214133126927 -0.673032199190708 0.792577314298065 1775644107.2687
0.145017718526542 0.134376556809693 -0.48041468064389 0.519505017381779 1775644107.28659
-0.0225223196707347  0.0684710578287345  -0.469274179570108 0.474777628216342 1775644107.30011
 -0.0499057088447496 -0.00657725760125119   -0.469785915568139 0.4724750221536 1775644107.312
-0.0308354577456881 -0.0109443659256097  -0.418040966544033 0.419319513389217 1775644107.32603
-0.0446663317867702 -0.0112578936283702  -0.527671734897038 0.529678469614807 1775644107.36634
0.0788620414282716 0.0057588958303766 -0.291760202317541 0.302285299205555 1775644107.38613
0.0664206031158252 0.0690660746163794 -0.299523070980874 0.314477168059939 1775644107.40002
0.0430109488120014 0.0248759858919658 -0.287932165495505 0.292187762096116 1775644107.41196
0.0224370050621708 0.0241102514305286 -0.274146241273142 0.276117520314077 1775644107.42617
0.00960808978458574  0.0323613702445766  -0.136876580192128 0.140977912732836 1775644107.4622
-0.0871413613328414 -0.0153976856095628  0.0106031880684086 0.0891242569353922 1775644107.48617
  -0.0706994215889908 -0.000285766243735857   0.00463241390636702 0.0708515993747764 1775644107.50014
 -0.042229070986397 -0.0570184170199807 0.00257999385645135 0.0710003569296515 1775644107.51191
  0.0266950985861182   -0.012756790486906 -0.00942630075350132 0.0310518781709713 1775644107.52591
 0.0912701517552762 -0.0156796004603578    0.19334631449923 0.214380241166164 1775644107.56106
 0.147360958825491 0.0709098995087647  0.327091800416955 0.365694560985416 1775644107.58605
0.123983067658331 0.105380067116505 0.316649680502774 0.356010926481138 1775644107.60015
0.0998349899041168 0.0351535156270771  0.334741925624031 0.351076845776793 1775644107.61174
 0.118609969951379 0.0673620315268261    0.3162102202343 0.344376061368836 1775644107.6249
 0.170172463715744 0.0666524479092219  0.572362050323882 0.600832366696682 1775644107.65593
 0.201984636388554 0.0560401208050802  0.701189206797626 0.731850115943386 1775644107.68501
0.148107566662181   0.0368772080448 0.698260471486661 0.714747134178617 1775644107.70003
  0.120505501064976 -0.0137325125292304   0.694957162914673 0.705461278862064 1775644107.71187
  0.186239348948208 -0.0447977005748793   0.672499028695045 0.699247361574734 1775644107.72607
  0.273352069299332 -0.0885178227982428   0.895346504548935 0.940320223089541 1775644107.75416
 0.249481635263741 -0.237033916417359   1.05978350178691 1.114256359428 1775644107.786
 0.131654743492761 -0.166827887105726   1.05969232891774 1.08079246267145 1775644107.80008
0.0752124212024489 -0.179849283063693   1.01369397825314 1.03226845077641 1775644107.81205
0.0710539374167044 -0.233188635492099   1.00956931752118 1.03858355880751 1775644107.82607
0.0599330048721575 -0.352927912975685  0.774197297117956 0.852954589468354 1775644107.85013
0.0890841364663333 -0.459900351653964  0.886151294425144 1.002351452053 1775644107.88562
0.0788070365880445 -0.227653356570941  0.879187969740676 0.911596449044497 1775644107.90014
0.0727444866001572 -0.175679169313084   0.84527141362282 0.866394075204335 1775644107.91215
 0.0494126600171105 -0.0818624892303574   0.826500208773969 0.832013024667505 1775644107.92602
0.00392061513428701   -0.11206725693827   0.781921740652868 0.789921546614795 1775644107.9498
-0.0491024260057282     -0.100702123057     1.0456413226365 1.05162623656547 1775644107.98587
-0.00814178781917386  -0.0226442116635425     1.03588108221805 1.03616054042219 1775644108.00018
0.00868303543691872 -0.0262397170736641    1.01722837293323 1.01760379350555 1775644108.01231
  0.031264250614045 -0.0256077063590697    1.00307236823889 1.00388614091231 1775644108.02595
 -0.012705361411594 -0.0626542406938679   0.779859044137688 0.782474989254527 1775644108.04779
-0.00431440104804338  -0.0583854037123018     1.04502813191444 1.04666674061787 1775644108.08564
 0.0559506942200733 -0.0185043160400942   0.938034873075545 0.939884201910892 1775644108.09996
 0.0896419934359901 -0.0341165377557451   0.924172671285108 0.929136562344777 1775644108.11192
 0.143506897027875 0.0138758437130124  0.898985683989657 0.910473518863492 1775644108.12464
 0.175617799239295 0.0620934682718478   1.05166371634956 1.06803266920907 1775644108.14278
0.206054505980129 0.127917785902968  1.53796393836253 1.55696965130622 1775644108.1845
0.190520609418341  0.11034966385043  1.20034339748107 1.22036856023147 1775644108.20016
0.199946594040541 0.070139205773473  1.18862186247166 1.20736079139607 1775644108.21213
 0.197811326312301 0.0616735937608145   1.16906755793431 1.18728762648286 1775644108.2247
 0.150849298516914 0.0312330838434126    0.8276844204074 0.841898162591265 1775644108.24205
   0.24722142174563 -0.0843608375372704    1.11261372858388 1.14286678633743 1775644108.28391
 0.247270182012964 -0.135941397984385  0.871458044317539 0.916003127507993 1775644108.30003
 0.289223980987226 -0.177522161312072  0.845987708419791 0.911515129733115 1775644108.31213
  0.33557372271473 -0.220896433250801  0.830955942317642 0.922980354976501 1775644108.32473
0.365688760125484 -0.25665729267285 0.950244361884243 1.05003122927705 1775644108.34045
 0.490675174337665 -0.300010886937092   1.52424810538033 1.62914116814584 1775644108.38259
  0.375283761382198 -0.0746043799843238    1.19646404716566 1.25615680996842 1775644108.39999
  0.29291716367812 0.0592843857567468   1.18410133097559 1.22123341961722 1775644108.41227
 0.269037842645634 0.0938891375929121   1.14528355751525 1.18019954162343 1775644108.42482
 0.210332918790105 0.0469871805378553   0.81428340765292 0.842321316268627 1775644108.44051
 0.256796106344285 0.0387574003849706   1.05091036542633 1.08252435191024 1775644108.48243
 0.181022203675703 0.0172763537269971  0.833313402367175 0.852923640888483 1775644108.50023
 0.166195764516846 0.0495249748859032  0.807345337939388 0.825760407123794 1775644108.51279
 0.174891928595795 0.0477870517026255  0.798427728394596 0.818753703178032 1775644108.52601
 0.132618650752805 0.0643414516676942  0.781143023696936 0.794928897701293 1775644108.54021
0.157885845415838 0.152072763873123  1.17392341556907 1.19421532870586 1775644108.58205
0.0450893970659949   0.20648373819945  0.899816611791226 0.924304345291115 1775644108.59996
0.014616971507109 0.231417131653717 0.889209996052911 0.918946114720167 1775644108.61361
-0.029587224088631  0.236376537395227   0.87672468954341 0.908512769593921 1775644108.62601
-0.12170971934867 0.225314336484137 0.790008172498842 0.830477404041903 1775644108.64022
-0.208145630401501  0.349406797449896   1.09834253234989 1.17122415955623 1775644108.68013
-0.148683125684328  0.182718101895371  0.851910843403844 0.883880456697939 1775644108.7
0.00553017731745901  0.0615148930800114   0.840683272318356 0.842949007525193 1775644108.71277
0.00794782956443816  0.0219610777618772    0.84172725222761 0.842051200387418 1775644108.72581
-0.0370112310105505  0.0248681835151369   0.852473819045491 0.853639191889796 1775644108.74171
 -0.10405668609435 0.0688175390338986   1.23337232575312 1.23966565715651 1775644108.78004
-0.121643041921096  0.129423238544538   1.01941739835635 1.03477496896417 1775644108.80017
0.0138235086905073 0.0744120179058117  0.998788317425521 1.00165180618169 1775644108.81382
0.0101480778272384 0.0356011094092282  0.984109941098311 0.984805970048556 1775644108.82604
 -0.0675458295104068 -0.00740428446705065    0.940198559840735 0.942650833786991 1775644108.84158
  -0.121127465800702 -0.00760260787744819     1.28207997889812 1.28781160691665 1775644108.87489
   -0.107010730506493 -0.000407366093591254      1.16101408851391 1.16593532244222 1775644108.89959
 0.0201196227405367 0.00269908130785387    1.14613393809772 1.14631369542482 1775644108.91308
0.0428067333214554 -0.020315354272118   1.14540356515758 1.1463832069219 1775644108.92633
 0.0123685017638813 -0.0624434520376875    1.12377240946979 1.12557389487488 1775644108.94088
-0.0218531770417524  -0.100243642992729    1.15991403148236 1.16444274644009 1775644108.97407
 0.0398971879582962 -0.0706018459889499   0.915697645033069 0.919281558274251 1775644109.00009
  0.115867959144323 -0.0195943460202236    0.90099873080799 0.908629756980168 1775644109.01397
  0.126758367459914 8.7717834310732e-05   0.886365904845379 0.895383833162007 1775644109.02629
0.0899792818764612 0.0237351370367436  0.877432129731332 0.882352973691378 1775644109.04066
0.0580009636300549 0.0742602203731766  0.948777774204582 0.953445308833437 1775644109.07266
-0.0799173863323941   0.206434125826696   0.958696606676158 0.983921247151627 1775644109.10009
-0.0377449157758588     0.1822541438017   0.941782966219423 0.959998128675713 1775644109.11415
-0.0446214127152928   0.177626164020473   0.911050566611131 0.929276740018709 1775644109.1267
-0.0469951732904007   0.254218328101941   0.900277988345989 0.936662138103085 1775644109.14082
-0.0919106060236036   0.409220424483905    1.11275362189478 1.18917178672989 1775644109.17092
-0.0289286784535949   0.297588688640941    1.08568882072499 1.12610661639621 1775644109.20005
 0.108900277328405 0.0384958931380881   1.06196800394068 1.06823089525835 1775644109.21411
  0.145939650100745 -0.0552159237876288    1.04015484067292 1.05179336006963 1775644109.22652
  0.29718439284898 -0.113344043874413  0.975793544279983 1.02632279361481 1775644109.24097
 0.364732331625815 -0.141935553663989  0.610016575526989 0.72477279029002 1775644109.26659
 0.448152674807326 -0.160370318181573  0.626593410398498 0.786879127214237 1775644109.30016
  0.284111476663513 -0.0871646828062531   0.644177345059603 0.709423332706696 1775644109.31453
  0.179374522045531 -0.0612506570362491    0.62979008882311 0.657694775808851 1775644109.327
  0.0575510692727771 -0.00483190041282946    0.615974919947838 0.618676470249827 1775644109.34173
-0.0704227866957485  0.0354525281121801   0.387980939910304 0.395910924791452 1775644109.36622
-0.175569635457394  0.181954987275273   0.45080840484727 0.51687574151814 1775644109.40017
-0.0815846784396533   0.149612585263538   0.442154330862826 0.473856980244139 1775644109.41449
0.0293994394541259   0.11924761754477  0.432788272024792 0.449877771992044 1775644109.4279
 0.280192468375098 0.0978549582027314  0.391373883246622 0.49117912075589 1775644109.44195
 0.396664288819777 0.0941179892872767  0.526085858656229 0.665557724476579 1775644109.46494
   0.579044919130896 -0.00205264685544305    0.602030134707291 0.835306838728199 1775644109.50008
  0.394999099872372 -0.0400252033450129   0.593385068012058 0.713955282032754 1775644109.51486
  0.315596637241474 -0.0509040699992832   0.590624143451348 0.671587180199456 1775644109.52806
  0.243546403666961 -0.0555086541938951   0.568071645427684 0.620565432302222 1775644109.54203
  0.171166313835456 -0.0945605717054084 -0.0627580446703856 0.205373272078237 1775644109.56465
  0.103540169636164  -0.101715492506754 -0.0472361461203985 0.152636370647643 1775644109.60015
 0.0115905014384196 -0.0622219933346469 -0.0138426139358397 0.0647883796579877 1775644109.61591
-0.0466404213121914 -0.0701498222614346  -0.021343781132957 0.0869015733835767 1775644109.62823
 -0.116986567610411 -0.0976032009858816 -0.0227476270375733 0.154044462347065 1775644109.64184
-0.198925695459143  -0.16597505404644  0.107354806411499 0.280435741907612 1775644109.6641
-0.332828589491889 -0.284475104698126 0.0237327213578607 0.438479414840902 1775644109.69994
 -0.274270412102082  -0.155457113289393 0.00172707481379618 0.315268386956779 1775644109.71588
  -0.281012693999456  -0.0677984692102783 -0.00633931895654444 0.289145211928058 1775644109.72829
 -0.344912925868038 -0.0363413480159541 -0.0178593912098269 0.347281698136906 1775644109.74197
 -0.554689305946559 -0.0514407119971851   -0.38645358343338 0.677991699898128 1775644109.76078
-0.722188436095954 -0.169845470157794 -0.577138795841993 0.939942982648303 1775644109.7987
-0.542267620511127 -0.127470036286674 -0.516310498213614 0.75952571580646 1775644109.81484
-0.407587551908335 -0.175906981179889 -0.532048148054931 0.692925761064728 1775644109.82827
-0.319287370185105 -0.237192656372318 -0.549784120766746 0.678577453533449 1775644109.84106
-0.355158617037706  -0.30898563514839 -0.384074055221359 0.607554644355855 1775644109.85819
-0.543365784991144 -0.417692949290922 -0.553851992426812 0.88117297149966 1775644109.9001
-0.443065558576852 -0.189362523256467 -0.416508800865889 0.636902532268333 1775644109.91466
 -0.350552480434404 -0.0741365459445341  -0.427269253996937 0.557621990594344 1775644109.92842
 -0.345162318622361 -0.0275530505366916  -0.433997569402713 0.55520274408373 1775644109.94218
-0.397478703841342 -0.031920975862747 -0.350858957447114 0.531140543291791 1775644109.96097
 -0.451084114826813 -0.0203248166823298   -0.40622158617336 0.607376286905786 1775644110.00019
-0.141475952849974 0.0390297562513768 -0.288383768540599 0.3235799206773 1775644110.01611
0.0881791932851822 0.0614978623261612 -0.305735697051936 0.324086213299712 1775644110.02969
 0.279797533327335 0.0910761324580163 -0.307733843531675 0.42577181683896 1775644110.04265
 0.429377123157425 0.0638720463303036 0.0997394303802229 0.44541251235898 1775644110.06053
0.552077572588298 0.134866328582208 0.318494378208015 0.651473131978857 1775644110.10006
 0.301556290938584 0.0384112386573729  0.254635257360459 0.396548526854983 1775644110.11623
 0.191889498384798 0.0316633011188847   0.25249486316474 0.318712723550057 1775644110.13017
0.149017879526423  0.02937582181213  0.23486978839849 0.279701778378402 1775644110.14365
 0.161006536339201 0.0765506545782362  0.167335517533192 0.244508247076461 1775644110.16054
0.238424742163896 0.151214807849528 0.324446077967461 0.430090145547835 1775644110.20006
 0.200718972779997 0.0622396555772413  0.292790180083914 0.360399736839251 1775644110.21791
  0.197480425748061 0.00636763837587008    0.28142688361728 0.343860663924583 1775644110.23087
 0.212422316875421 0.0292934494123365  0.267937050341357 0.343178684989062 1775644110.2443
 0.198574113872044 0.0771853597355045  0.305379477202097 0.372351827649325 1775644110.26082
0.218117190027514 0.153393158658611 0.562146826991929 0.622184558475906 1775644110.29977
0.265299268077929 0.192069406784943 0.497638665013551 0.595750450760949 1775644110.3184
0.327872399993568  0.15982597952554 0.478204668696578 0.601435249691972 1775644110.33204
0.385890275406157 0.161737635791371 0.472860335590745 0.631401032988871 1775644110.3451
0.531978942354171 0.189092650666211 0.912047043796618 1.07265438783533 1775644110.36207
0.622691053042506 0.210199889837232  1.47371871459398 1.61362170008069 1775644110.39861
 0.725866781167283 0.0510169406819422   1.20495728292479 1.4076247248156 1775644110.41884
  0.614601396959617 -0.0537376817434644    1.20793730081771 1.35636836379011 1775644110.43228
 0.499249419063136 -0.108351079115911   1.18470055884411 1.29015710396293 1775644110.44578
0.317096393418437 -0.13023124085156 0.784328366106346 0.855968039527042 1775644110.46417
  0.300401528770095 -0.0953974188878855    1.05077075177931 1.09702366374329 1775644110.49911
0.0954323895722185  0.185863117020423  0.989285931349117 1.01110785439205 1775644110.51959
0.0864189015847286  0.284443926088374  0.984520108549639 1.02842424017439 1775644110.53223
0.064163489176834 0.284306403992338  1.00291358017563 1.04440544521517 1775644110.54484
0.0311492884031789  0.311690803133381    1.0552261994049 1.10073782838443 1775644110.56077
0.0568255783575069  0.444757792089071   1.50390236406322 1.5693186294104 1775644110.59985
-0.0950895095302602   0.436518922061277    1.04861445956772 1.1398171208377 1775644110.6189
-0.0561115892629778   0.382741258452716    1.03826013126168 1.10798171534511 1775644110.6323
-0.0189463895640504   0.402258797810445     1.0232467669325 1.09963860069171 1775644110.64467
0.0823821731744339  0.436311570649002   1.00723194339365 1.10075919116385 1775644110.66013
0.207988199561546 0.624052241591048  1.50006455973548 1.63795420411135 1775644110.69843
0.442362057078677 0.184251992245528  1.26952210385585 1.35695223142449 1775644110.71864
 0.430924525018422 -0.128859714324431   1.28173849682609 1.35836458525837 1775644110.73228
 0.348390752075846 -0.219580197134116   1.28833351254594 1.3525512258892 1775644110.74477
 0.141654017721639 -0.357736198722452   1.26288037547785 1.32019236908117 1775644110.75987
0.0484110419194101 -0.611324362821466   1.16210546011458 1.31398257446091 1775644110.79994
-0.113890206209452 -0.517544009894882  0.527112538321598 0.747442579269032 1775644110.82094
-0.112387523858624 -0.322980066081737  0.510664657363462 0.614593744586925 1775644110.83422
-0.102044276604298 -0.316412231038832   0.49655828455132 0.597578333187554 1775644110.84649
-0.0858740861188268  -0.390313031891605   0.453941921211687 0.604799048746374 1775644110.86238
-0.0621901907078531  -0.558094773493378   0.764539354948068 0.948608360328599 1775644110.90018
 0.426390834659121 -0.462304610594709  0.666217340010969 0.91617697034455 1775644110.92179
 0.539124904408384 -0.224819967927025  0.624283619100004 0.85494427748752 1775644110.93466
 0.538401739035913 -0.127517643924994    0.5869367910129 0.806617616193447 1775644110.94802
 0.458111061605541 -0.019825493025179   0.51466309613854 0.689301746309956 1775644110.96389
0.524651774786138 0.034824120852711  0.42617834768609 0.676830989402712 1775644110.99998
-0.180642857143415  0.150689823630999  0.166681478457587 0.288308827550745 1775644111.02207
-0.289443821454053  0.193991329265157  0.164496399957793 0.385317307173014 1775644111.03597
-0.26100435270012 0.226591518652098 0.145850536078938 0.375152458779076 1775644111.0484
-0.228251602742479  0.299085534433511  0.136128610155341 0.400102423842588 1775644111.0639
-0.247542447399272  0.419424518192913  0.155939959572849 0.511381912778854 1775644111.10005
0.312804519781254 0.246628497990141 0.161063493803736 0.429667002052427 1775644111.12271
0.414804490263318 0.129455947410242 0.157654668617795 0.462251665220885 1775644111.13635
0.354113878264803 0.119056613401668  0.15059014788181 0.402800829956294 1775644111.14885
0.162863560974981 0.169333241123268 0.131018730952673 0.269005936557562 1775644111.16481
0.136251578420905 0.256880481249959 0.162547756351094 0.333127374084108 1775644111.2002
-0.221241535034298  0.173314626145842 0.0670844024049964 0.288939601831319 1775644111.22414
-0.317496762150213 0.0100746152447739 0.0587626229142456 0.32304603031141 1775644111.23794
 -0.365083596262307 -0.0491453065848069  0.0611054140233475 0.373410183366895 1775644111.25019
-0.446742243364895 -0.140537279170585 0.0262723940472865 0.469062466556796 1775644111.26587
-0.613766960311178 -0.242187308301352 0.0273017474624794 0.660386219788377 1775644111.29999
-0.274859432395131 -0.211466562889247 0.0557627554859717 0.351248202409854 1775644111.32431
-0.0754991932673851  -0.141545459764671  0.0217671038108849 0.161892100401261 1775644111.33813
-0.0820759182458181 -0.0896551024995996  0.0325489987153971 0.125832949093164 1775644111.35023
 -0.213344662584659 -0.0727184350752647  0.0170318598579799 0.226039819729576 1775644111.36485
 -0.385142524407848 -0.0819699481904181 -0.0114935995137502 0.393936466125404 1775644111.39985
  -0.240112106295845 -0.00238844873596464  -0.0486880293538124 0.245010310965782 1775644111.4243
-0.0162117088598007  0.0111819280481971 -0.0713081233220278 0.0739777228004453 1775644111.43836
0.00269358709290229  0.0445512804223907 -0.0813460714117933 0.0927860729465048 1775644111.45055
-0.0496963580057473   0.068091597933401 -0.0791213483968626 0.115613067947776 1775644111.46578
 -0.14772854004308 0.0979271284979518  -0.26988467046019 0.32287951218453 1775644111.4984
-0.447519800631584  0.136344439103143 -0.363099151160227 0.592203319481545 1775644111.52419
-0.402646112417912 0.0827545980491252 -0.374856973826216 0.556318223833876 1775644111.53844
-0.402462362974219 0.0677525661009311 -0.379919575274872 0.557588779927549 1775644111.55083
-0.449566544659559  0.049013070934307 -0.389831342417652 0.597060160059851 1775644111.56597
-0.621656041114271 0.0622154142274515 -0.655513232593645 0.905552090896339 1775644111.59661
-0.295150303646964 0.0395016798488963 -0.654333172975325 0.718906103541858 1775644111.62597
-0.0651790002651129 -0.0380228285279869   -0.67360298250109 0.677816358314841 1775644111.63996
-0.0676684125487956 -0.0312037362941585  -0.661175060040613 0.665360915019283 1775644111.65227
 -0.107563940308783 -0.0480990547852745  -0.631014868724143 0.641921556638299 1775644111.66699
 -0.156861513297073 -0.0607386120277789  -0.521630193613647 0.548080990579239 1775644111.69615
-0.0598414080270014  0.0436492695928797  -0.442902657077808 0.449053467303425 1775644111.72642
0.0551628030916758 0.0797092151288329 -0.450464813776043 0.460776564368969 1775644111.74037
 0.103271931862199  0.106509879055346 -0.443811260159928 0.467950724854315 1775644111.7527
 0.164880285280713  0.161518083110371 -0.450813810986038 0.506464896929346 1775644111.76796
  0.24786515839835  0.260590342899279 -0.530207717201242 0.640675180524386 1775644111.80013
0.0551453714661078   0.44050306159131 -0.612958013168471 0.756836498309173 1775644111.82781
-0.0167269427309492   0.307828054068929  -0.605516266961253 0.679476159287196 1775644111.8418
-0.0126005582394521   0.314303144420042  -0.617853938874813 0.693317193240866 1775644111.8541
0.0779068119852494  0.366895342146417 -0.635717391551927 0.738118056522144 1775644111.86829
  0.15429597276253  0.574818475879946 -0.961551677252475 1.13084267493349 1775644111.90003
 0.236696434868631  0.436334821865308 -0.944866975595671 1.06732697924444 1775644111.92819
 0.162514503451385  0.148869302756211 -0.936203990029665 0.961795687286357 1775644111.94229
 0.117912092007025 0.0974871157678512 -0.923785119156956 0.936368488127424 1775644111.95501
 0.126436444513519 0.0775623289679726 -0.908463541779541 0.920493398194025 1775644111.9703
 0.143299972666284  0.112139414970592 -0.829958616387441 0.849671369102113 1775644112.00005
0.00148175318039677    0.13284612107796  -0.787417305813024 0.798546367452628 1775644112.02855
-0.018534904593715 0.0876722042561059 -0.787129240134426 0.792213606776621 1775644112.04277
-0.0104860613551076   0.102052480279199  -0.790002152210287 0.796635466641276 1775644112.05602
 0.115355877237417 0.0633391097522581 -0.796748647589235 0.807543948446583 1775644112.07057
 0.167182694790423 0.0770644270087843 -0.758162708523209 0.780192073750322 1775644112.10002
 0.168707141025474 0.0557487368747968  -0.71268023917675 0.734495162958309 1775644112.13012
  0.110968109012069 -0.0095905009509678  -0.715099291542676 0.723721559504096 1775644112.14397
  0.106792721572479 -0.0399445870331789  -0.717374580326772 0.726379063515133 1775644112.15646
  0.138614775629959 -0.0944047950831066  -0.709381680863272 0.728936684837598 1775644112.17104
 0.164412448892181 -0.120501188594359 -0.492902868249848 0.533390314246804 1775644112.1988
0.0434592956735763  -0.09456945582016 -0.457871816890607 0.469551587216219 1775644112.23008
-0.0724205259165388 -0.0294100130457441  -0.469350160850405 0.475814307195233 1775644112.24436
 -0.213727483802016 0.00458035037943847  -0.451546892456863 0.49959484888196 1775644112.25802
-0.364643139688573 0.0375684912350826 -0.458970288423793 0.587392319077667 1775644112.27196
-0.511822492214089 0.0691357317878096 -0.682325144118806 0.855750907240434 1775644112.29851
-0.358903902713614  0.220030028155697 -0.794176485744854 0.898855669828759 1775644112.33033
 -0.11255215114489  0.184110986439817 -0.789876262523494 0.818821929453082 1775644112.34579
-0.0154888697500153   0.195165091436163  -0.774721658828462 0.79907632092269 1775644112.35836
 0.171769600605734  0.210693453292586 -0.760264295007708 0.807402207834594 1775644112.37268
 0.20893862457131 0.273201378084154 -0.61193393263203 0.701966865123514 1775644112.39982
0.0981811273872595  0.228491115530164 -0.711327405046082 0.753547875599716 1775644112.43065
-0.00217950204372347   0.0932195819110691   -0.721470396780574 0.727471081288839 1775644112.44602
-0.0551009901907864    0.04104159983112  -0.732788085541725 0.736001977136345 1775644112.4597
 -0.0563880069696877 -0.00806033739035071   -0.753041646298467 0.755192887565002 1775644112.47396
 -0.132224664628016 -0.0308200650356169  -0.753660771911748 0.765792267826858 1775644112.49869
 -0.181595388291094 -0.0917740008105083  -0.805424487353911 0.830727366289729 1775644112.53068
 -0.115570914093132 -0.0981835074252247  -0.800783917443459 0.815016269623333 1775644112.54615
-0.136140510275199  -0.12053697901596 -0.784018935865387 0.804828611347646 1775644112.55961
-0.0856520496665941  -0.197533550178513  -0.780090719500115 0.809257256815423 1775644112.57403
-0.106591932335523 -0.330270332090553 -0.563179379352004 0.661521991792815 1775644112.59982
0.0199749846809416 -0.355299679903803 -0.562694818511555 0.665779484012913 1775644112.63257
0.0805238296139264 -0.198392290404717 -0.561931586632161 0.601340748729586 1775644112.64688
 0.113087283972248 -0.137245512676257 -0.563141229769639 0.590553223014192 1775644112.66016
 0.269716161862776 -0.110347961851037 -0.550836529557867 0.62317281948912 1775644112.67416
 0.390146500039678 -0.137554048831007  -0.52988026376447 0.672241401410325 1775644112.70024
  0.481921429892775 -0.0931816934536189  -0.661726292515425 0.823900952051271 1775644112.73261
  0.294213155237319 -0.0506642164697566   -0.65651602131303 0.721208381666411 1775644112.74822
  0.228776386470813 -0.0188586648372217  -0.649862171919243 0.689213411606072 1775644112.76059
 0.234923682122103 0.0802775269724183 -0.635234804805742 0.682024101476776 1775644112.77441
 0.252711922224364  0.143203440623947 -0.490499259917167 0.570052686179232 1775644112.79993
 0.204655688224098  0.197793144672538 -0.510927928559157 0.584853338011917 1775644112.8341
0.0840777343417966 0.0863132868089092 -0.503961690922438 0.518166416134054 1775644112.84862
 0.057151082223703 0.0260235428183244 -0.491943431091681 0.495935288494793 1775644112.86198
0.0634921415405723 0.0511101819789703 -0.462400400953307 0.469529161544957 1775644112.87518
-0.0052700599945811  0.0546322151398873  -0.328307804538546 0.332864036784327 1775644112.90008
-0.0825794539156848  0.0674887637240518  -0.315827446714283 0.333348279635694 1775644112.93484
-0.0850771806784776  0.0250738853480535  -0.310797031802284 0.323205231046398 1775644112.9502
  -0.13446337409087 -0.0338149697951983  -0.292426989183584 0.323631573177166 1775644112.96268
 -0.167686405099472 -0.0959475371215753  -0.284971001784107 0.34428641011913 1775644112.97672
-0.245816204936858 -0.153714956896042  -0.15721137130321 0.329801925176533 1775644113.00013
-0.226673022265897 -0.218376912777831 -0.256462675425929 0.406007683356064 1775644113.03669
-0.0911292814929467  -0.142800339939921  -0.254568346200605 0.305780192163732 1775644113.05164
-0.0211158834660108  -0.146630461328717   -0.24851376857824 0.28931896912747 1775644113.06405
 0.142436477106366 -0.171515948682858 -0.217718049432358 0.311619992477511 1775644113.07794
 0.227817886766496 -0.250792455605023 -0.213735949995953 0.400600676035154 1775644113.10014
 0.267894744038099 -0.425359862331066 -0.204589915143917 0.542729803626203 1775644113.1367
 0.170283134762361 -0.271497791964798 -0.203948507645506 0.379871545126884 1775644113.15174
  0.11918638718197 -0.253355387135865 -0.195501674121548 0.341489753381536 1775644113.16419
0.0768742719153755 -0.322097585544722 -0.198456259466967 0.386058797617511 1775644113.17815
0.0221644977514394  -0.48066923085286 0.0924085005358537 0.489972963968971 1775644113.19915
-0.0536291851869562  -0.871745560457833   0.107021112077095 0.87992609355103 1775644113.23672
-0.0885802972815189  -0.610217432111929    0.10094454567558 0.624821242293672 1775644113.25222
-0.0698136536943982  -0.544084530355987  0.0897192712220852 0.555834031023181 1775644113.26433
-0.0385966916132609  -0.630052465970627  0.0771378653556036 0.635929292257226 1775644113.27834
-0.0883215560155709  -0.897067940823183 0.00122802570620465 0.901406176901896 1775644113.30023
 -0.12265266776222  -1.17435251801566 0.0333717896441703 1.18121174639561 1775644113.33636
  -0.124835889812634   -0.636828443984373 0.000365348910256945 0.648948842307848 1775644113.35229
-0.0996056636764471    -0.3694017442767  -0.007236891229891 0.382663441558986 1775644113.36553
-0.0756072022380223  -0.272384253018515 -0.0161631014300968 0.283144620592649 1775644113.37975
 -0.133175079058862  -0.375406768066127 -0.0104641140932542 0.398466235553209 1775644113.4
-0.0736125420777583  -0.620295697920867 -0.0696734660533363 0.628522037069641 1775644113.43599
0.0359455625205785 -0.414753888467235 -0.148918667669621 0.442142105034238 1775644113.45223
 0.156178432183573 -0.325235713046641 -0.184046194913093 0.405022188999892 1775644113.46488
 0.263979078856636 -0.399142327845607 -0.207062255400249 0.521415697465512 1775644113.47963
 0.276491320700231 -0.578890007844622 -0.323713838391465 0.718576189955554 1775644113.49965
 0.345209771210604 -0.894204251015291 -0.452392447859122 1.05991978732028 1775644113.5349
  0.21153446024733 -0.621804861623063 -0.372759356117389 0.75520702551238 1775644113.55205
  0.18512571210794 -0.491711134516439 -0.379995196268772 0.648419399986042 1775644113.56565
 0.173248514589161 -0.588925450169723 -0.364898447393039 0.714142220131825 1775644113.57981
 0.166530455115793 -0.729890612742856  -0.21886082679986 0.779982538624253 1775644113.59835
 0.213958369730544  -1.12243591084612 -0.165786683476716 1.15461066267072 1775644113.63413
0.0501399709821666 -0.747641579725231 -0.137113478901912 0.761762465943759 1775644113.65199
-0.0229193945523055  -0.410779915607621  -0.123357100119072 0.429514157930836 1775644113.66493
-0.0552730533263169  -0.416726795726266   -0.11603620248336 0.436097160030944 1775644113.67894
 -0.127437276701606  -0.496254818326833 -0.0614442291194592 0.51602761311562 1775644113.69822
 -0.130496720040562  -0.827004095189451 -0.0870160844799126 0.841746378881242 1775644113.73382
0.00115416296026164  -0.584526085840076   -0.20283604579134 0.618720080967093 1775644113.75231
0.0506915593306616 -0.458645776869491 -0.286175256553754 0.542975008901146 1775644113.76638
0.0682130415097262 -0.435378224279669 -0.306661804546109 0.536887958121992 1775644113.77967
0.0457366135401672 -0.517847069743441 -0.274409109561928 0.587841632474735 1775644113.80016
0.0520940944145706 -0.798578621645452 -0.218002878225542 0.829437679718401 1775644113.83277
0.0218067143024616 -0.648332886177352 -0.167221959455142 0.669906148510179 1775644113.85405
-0.0194419622474585  -0.424190845298726  -0.168400880983526 0.456809281700041 1775644113.86664
-0.0216242600584475  -0.398472471763036  -0.182385060844173 0.438762156293306 1775644113.88001
-0.0449528694750641  -0.447045660977452 -0.0865251309898662 0.457555659746027 1775644113.90017
 -0.0827888753412596     -0.6237707949285 -0.00399967588991079 0.629253525928324 1775644113.93247
-0.0940261674845945  -0.470387044134517 -0.0283797365033376 0.480531269435661 1775644113.95415
-0.0470853347346688  -0.231652611608049 -0.0744119376713502 0.247824731776129 1775644113.96797
-0.0647503240338939  -0.141830326943043  -0.102092543129848 0.186363444553873 1775644113.98227
 -0.168767592377221 -0.0691024979080648 -0.0689093143970251 0.194951658276112 1775644114.00022
  -0.27448480896882  0.0264169705277553 -0.0300360478774606 0.277384085445814 1775644114.03643
-0.173458967572585 0.0870155336942792 -0.089203419394332 0.213581287961021 1775644114.05431
-0.0733660086704541   0.307309952013273  -0.155487049074249 0.352133781771149 1775644114.06855
-0.0260767882166045   0.402183491535206  -0.193250873549957 0.44696471882573 1775644114.08222
-0.0563416665828069   0.579033078867317  -0.164569147456544 0.604596306729099 1775644114.09994
-0.109769477380818   1.08755718554433 -0.115853838406114 1.0992052046215 1775644114.13726
-0.0754864947466112   0.850959216963568  -0.113583016348206 0.861818369163211 1775644114.15591
-0.0128392436139939   0.589153966395936  -0.128758054299749 0.603196384972341 1775644114.17005
0.0180953308438564  0.615186757345691 -0.142068363131841 0.631637243372187 1775644114.18242
 0.064285956309476  0.809850876492945 -0.200188628618919 0.836699834685856 1775644114.20027
 0.101364372891013   1.44436756828259 -0.208960332807933 1.46292065030382 1775644114.23605
 0.109536764477536   1.00617496008148 -0.174273943161329 1.02701400201369 1775644114.25648
 0.117066404713236  0.491766642824075 -0.133069579985995 0.522729841528675 1775644114.2702
 0.125819456596948  0.460176580218341 -0.135337862648886 0.495892486035196 1775644114.28308
 0.119574727950826  0.557290086939236 -0.100382640114017 0.57874608508526 1775644114.30007
 0.0942051670965039   0.967452236480215 -0.0470410129849715 0.973165607839129 1775644114.33597
 0.0313607629696862   0.656965541849026 -0.0255893652240927 0.658211239833837 1775644114.35686
  0.0382064499615439    0.285246005457125 -0.00318343218988433 0.28781096346112 1775644114.37027
   0.032518797679236    0.249190159914154 8.41845711909057e-05 0.251303034377993 1775644114.3842
-0.0405033080080776   0.257739165228335 -0.0373277340700233 0.263559016129212 1775644114.39904
 -0.127347531436912   0.510335731993089 -0.0276208763098589 0.526709470125725 1775644114.43482
-0.0666022282109577   0.486240896278432 -0.0534220106678717 0.493680035286131 1775644114.45658
 0.0107487733559544   0.356051383187639 -0.0541148759353997 0.360300629191779 1775644114.47035
0.00658888855085385   0.391883326080202 -0.0567330214036651 0.396023472069026 1775644114.48426
-0.105117832535203  0.443362271145396 -0.131755136275864 0.474319805750481 1775644114.49982
-0.281363837133747  0.771638529138223  -0.21201389217382 0.848257931865018 1775644114.53482
-0.392186877897456   0.77428846877982 -0.216054210824507 0.89443423575764 1775644114.55815
-0.358344373545258  0.616393218196876 -0.212864790877121 0.74408514881417 1775644114.57209
-0.376098244381149  0.624346446851722 -0.226006533415438 0.763110298888316 1775644114.58434
-0.418957888859819  0.808233436519317 -0.253791054872544 0.945080366994797 1775644114.59865
-0.621171679131662   1.28709510822896 -0.350277329855507 1.47144904104521 1775644114.63467
-0.381170253818162   1.18141797593549 -0.278188481336783 1.27217452710223 1775644114.65816
-0.0988246434198682   0.749347902720759  -0.286023810913141 0.808144918853259 1775644114.67198
-0.0443919530396655   0.650617496437113  -0.283079192421344 0.71092024963894 1775644114.68413
0.0052443840022968  0.775987668921257 -0.266381051433157 0.820453064132278 1775644114.69877
-0.00152921194298532     1.14499189862914   -0.222803708393525 1.16646915042338 1775644114.73395
 0.110961707696591  0.972116544975708 -0.108699470452793 0.984448400103921 1775644114.75821
 0.162173006106209  0.508412751404468 -0.090564727646035 0.541281423654818 1775644114.77225
  0.188295254550657   0.349537760160817 -0.0881994910036182 0.406707387291938 1775644114.78422
  0.238954849264979   0.363476110346365 -0.0285018025203032 0.435920469267822 1775644114.80011
0.282682078755351  0.51606207397905  0.11388381507468 0.599331915706956 1775644114.8328
0.109982642119946 0.387195694816133 0.111867226917936 0.417769032014271 1775644114.85846
-0.0112678535262735   0.179891402149414   0.115415837987261 0.214029663244779 1775644114.8721
-0.0554279582600124   0.172070885527354   0.116760106132191 0.215205879536415 1775644114.88446
-0.0539051334294637   0.237249585842268  0.0891339478467116 0.259109996046305 1775644114.90021
  -0.10160751311285   0.342775288967084 -0.0446941415004984 0.360300640759786 1775644114.93244
0.0602007734567463  0.547672925779102 -0.050227380502847 0.553256320802944 1775644114.95993
  0.114135381897539   0.386233169541293 -0.0431539098528733 0.405049634724437 1775644114.97301
  0.110516354008711    0.39032683467482 -0.0488835461552431 0.408605559746016 1775644114.98597
 0.0719554538013894   0.465307646663192 -0.0162632958729978 0.471119186796351 1775644115.00008
0.0242984490847168  0.680089894653284 0.0196397367767723 0.680807167043722 1775644115.03203
-0.034113482188015  0.732957667388034 0.0251693093752613 0.734182651650342 1775644115.05913
-0.0414826414166056   0.416377667057776  0.0336057267012073 0.419786274228316 1775644115.07297
-0.0387120925090317   0.426903438213071   0.043920257320774 0.430899246538784 1775644115.08618
0.00305911715719845   0.411937563245671  0.0464092742868363 0.414554863619272 1775644115.10021
-0.0123644889128318    0.51894533459924  0.0178736475477271 0.519400238895838 1775644115.12635
0.0027598866882504  0.551698953623608 0.0104268177709805 0.55180437741354 1775644115.15867
-0.0185520023174578   0.256322159959235  0.0101888933873965 0.257194556755415 1775644115.17296
-0.0316774526563813   0.193004257119963 0.00852320251824008 0.195772187131863 1775644115.1862
0.0244048746495658 0.0349948609320492 0.0282599421909572 0.0511748232136734 1775644115.19998
   0.043914954067238 -0.00973490911094651   0.0491035499797732 0.0665916681480656 1775644115.22486
  0.138249242992177 -0.0796978686925229   0.120085494243194 0.199712617001713 1775644115.2582
  0.20821293492058 -0.124298337071857  0.134200083949121 0.277150438208244 1775644115.27371
  0.24939578307686 -0.171132259574146  0.152883766530941 0.338906997496601 1775644115.28616
 0.344887294556948 -0.390586814078597  0.211597284549194 0.562386625114318 1775644115.30007
 0.435878712160819 -0.646231337028042  0.289957154807919 0.831673219658015 1775644115.32424
 0.409635687616438 -0.969920855368735  0.374519053721973 1.11750274444809 1775644115.35826
0.0959970255817683 -0.656616513937339  0.287983347439299 0.723391376571572 1775644115.37402
-0.0625437381975733  -0.532590339302309   0.256235838673199 0.594323980440326 1775644115.38631
-0.207763189352795 -0.632837270505636  0.268792683841759 0.718260440702344 1775644115.40006
 -0.31931160426527 -0.898392336696913  0.148566094879804 0.964956255900771 1775644115.42069
-0.406467494514732   -1.2254459428452  0.246871353901619 1.31448813167334 1775644115.45796
-0.309539602543612 -0.728242009849908  0.221419085019526 0.821691914079709 1775644115.47403
-0.229540115374925 -0.452213594127477  0.209834839414179 0.548831904240268 1775644115.48623
-0.124310863867107 -0.355609913912541  0.209553570829024 0.431073428542593 1775644115.50015
-0.142155498559763 -0.481105460224609  0.092343917468566 0.510096117140828 1775644115.52008
-0.0607533969931192  -0.644946126637572  0.0731280618607673 0.651915788229218 1775644115.5568
-0.0556367797546315  -0.505805598405099  0.0768734951056715 0.514630244825513 1775644115.57303
-0.0151133301229776  -0.454384496455655  0.0738766954921069 0.460599011618022 1775644115.58615
0.0558940502127255 -0.466710779254822 0.0614379355036567 0.474044002430974 1775644115.60007
0.0469973243677566 -0.602014041897543 -0.101369286672159 0.612295179974469 1775644115.61801
 0.181769565582912 -0.886097678169504 -0.204144044682045 0.927299337435723 1775644115.6563
0.0552056892557551 -0.714623939256131 -0.142826290766003 0.730844984944227 1775644115.6729
0.0530791586617848  -0.63089232965028 -0.148626633352978 0.650332534045192 1775644115.68624
0.0439574929666423  -0.70634767026111  -0.12910615766208 0.719393975800101 1775644115.70013
-0.00633314618530961   -0.933990983235713    0.124101642303042 0.942221037298855 1775644115.71778
-0.0102775297846352   -1.30566993500357   0.274026648512113 1.33415524242326 1775644115.75454
-0.0657408592512365   -0.96481956705296   0.191186422762214 0.985774267158544 1775644115.77225
-0.0233152056808276  -0.688249715566719   0.166091066991151 0.708390790685387 1775644115.78609
-0.0369732243161717  -0.691813574809581   0.159989454457096 0.711034223609965 1775644115.80013
-0.138115825008071 -0.825941223451368 0.0249683690196525 0.837781776577591 1775644115.81622
 -0.128151466037576   -1.28700643589426 0.00742976821411075 1.29339227063429 1775644115.85397
 -0.132361169621797  -0.890461052961019 -0.0519347396000717 0.901741417060026 1775644115.87231
 -0.089907324911512  -0.518166234092017 -0.0798125681903583 0.531930088702442 1775644115.88627
-0.0840673012029054  -0.482806700262433 -0.0935576606985048 0.498921493649267 1775644115.9001
-0.0769969984097338  -0.633216411310577 -0.0578762583706001 0.64050075925024 1775644115.91605
0.0185920112355915  -1.11888944380396 0.0187744523984386 1.11920138062843 1775644115.94971
0.0771459131623986 -0.978745691072569 0.0471720081191446 0.982913942347332 1775644115.97226
 0.115876154005696 -0.635524742022604  0.047420493813739 0.647740444949663 1775644115.9864
 0.122810274896845  -0.58103834123073 0.0373412402411599 0.595048137399946 1775644115.99998
0.157326623215684 -0.68716613304965 0.172749750792987 0.725803993638709 1775644116.01605
0.209250220058205 -1.10142977751231 0.238496441003023 1.14621715296725 1775644116.04835
 0.154958278557661 -0.938038803165091   0.25030304643423 0.983148248938687 1775644116.07187
 0.129669920184075 -0.559944158316689  0.161181365835772 0.596934821673367 1775644116.0863
  0.14242992503407 -0.509415535178127  0.155099037160527 0.551222443623398 1775644116.10021
  0.14518576879309 -0.584107222808064  0.116278106356176 0.613009586559923 1775644116.11513
0.197269448265728   -1.064719368457  0.10395567497386 1.08781862051806 1775644116.14794
 0.213227739900722  -1.01848673399977 0.0265225182759868 1.04090573078084 1775644116.17385
  0.193222401007042  -0.524078276426029 -0.0617681730796982 0.561968187069523 1775644116.18712
  0.148715474966666  -0.452561991638788 -0.0813502958760972 0.483266509712556 1775644116.2002
 0.0558373308482926  -0.449906087017086 -0.0967758615852942 0.463571852075666 1775644116.21841
0.00489449045865896  -0.567116412157486 -0.0396195349728011 0.568519734509445 1775644116.24651
 -0.086035653992612  -0.519828300715126 -0.0379683905860624 0.528266215715152 1775644116.27233
    -0.11089518358 -0.201120420289583 -0.135272756172757 0.266544337327347 1775644116.287
-0.159368733042674 -0.131043800128161 -0.158811042846612 0.260368619372007 1775644116.30015
-0.281963567031721 -0.028537806818203 -0.172765399561781 0.331912251712688 1775644116.31828
-0.417765399577928   0.19182955751253 -0.108028215447975 0.472225161922607 1775644116.34626
-0.462128180777339  0.318327360813051 -0.108235370685606 0.571497733659746 1775644116.37254
 -0.35915814588158  0.549060461850637 -0.153123119210507 0.673727433134116 1775644116.38704
-0.303996003974466  0.614514365844424  -0.19269386751347 0.712160377189659 1775644116.39973
-0.310228119047822   0.78950381106535 -0.196425379070677 0.870712744294995 1775644116.41713
 -0.428910011811089    1.43413679277399 -0.0980915828924487 1.5001113616176 1775644116.44594
 -0.35194528765797   1.55660696869935 -0.122606859346503 1.60060088169001 1775644116.47274
  -0.1077065117415   1.06215409103398 -0.207219634850876 1.08752562399213 1775644116.48685
-0.0538275525199637    1.01980028893506  -0.227344375296487 1.04621962307217 1775644116.50019
0.0788335741961509   1.16928999741562 -0.215744636899886 1.19163735206136 1775644116.51413
 0.106612439811406   1.72342314492212 -0.206367657095889 1.73900579604297 1775644116.54423
 0.117772747710478   1.70678818751375 -0.166178419486223 1.71889836937577 1775644116.57268
 0.107982064669154  0.780808678371049 -0.122156385006851 0.79764935962345 1775644116.58835
0.0675502464002179   0.53839534998718 -0.102469616253896 0.552207036293245 1775644116.6002
 0.0270847773605833   0.565805702869375 -0.0746467204115516 0.571350865434174 1775644116.61424
-0.0478749250047019   0.837410343650137   0.014525413264856 0.838903498459126 1775644116.63971
-0.0964644896412371    1.09195920418565  0.0692456568721602 1.09839667805541 1775644116.67241
-0.0353609759661285    0.64912837657334  0.0760993831624369 0.654529727370515 1775644116.68815
0.0120514417797488  0.494224207762964 0.0549782199358844 0.497418746586032 1775644116.70016
0.0768304743544686  0.530095287751984 0.0364354161151388 0.536871935785319 1775644116.71409
0.0936215318674226  0.731386743481451  0.086039582955823 0.742357305887682 1775644116.73847
0.150932643731687  1.18725798209165  0.14349150727512 1.20538458246497 1775644116.77245
0.124052714905318 0.863023703368773 0.149459520536251 0.884611291432943 1775644116.78809
0.129369400430441 0.783219009946934 0.155152363730824 0.808851479124103 1775644116.80012
0.218083792541874 0.968306390292816 0.126693336163384 1.00061431504829 1775644116.81296
0.195457247226792  1.31586985488246 0.224247874885565 1.3490752832487 1775644116.83407
0.190865954559426  1.96613140642285 0.361239629624226 2.00813261263872 1775644116.87189
 0.24835014592458  1.34154680910857 0.397440925885214 1.42105064145464 1775644116.88824
0.292559045990712 0.965437834064837 0.432789945241906 1.09771040968795 1775644116.90021
0.400728382162817 0.939951210199014 0.428195264948586 1.10790013031401 1775644116.91371
0.443350015629011  1.09512284275794 0.252505671637608 1.20814419309023 1775644116.93242
0.538532737053087  1.36820544583553 0.311083106192767 1.50292260274787 1775644116.97005
0.228931622796115 0.889967111655134 0.190077190100746 0.938392501003945 1775644116.98707
0.0754200769144408  0.550678464226121  0.201239603819694 0.591128020914021 1775644116.99998
0.0104427404656877  0.387916640471466  0.208450745304308 0.440499811578875 1775644117.01254
-0.0383710118483385   0.397179381842831    0.19086335830925 0.442326369840646 1775644117.03205
-0.0294505758838608    0.54911643691921   0.272746772123221 0.613829780491608 1775644117.06884
-0.0560660485321027   0.371258407030304   0.149422968159286 0.404108190961546 1775644117.087
-0.0655419462647976   0.228940867040613   0.180648872592969 0.298904135954315 1775644117.10022
0.0209380387261641  0.147577500956932  0.191011116573186 0.242286538852093 1775644117.11248
   0.129621037233535   0.0206371009927418 -0.00802640956409927 0.131498769885398 1775644117.13094
  0.147180059724852 -0.0675756917336706 -0.0497410280915533 0.16941845817236 1775644117.16828
  0.169714997703847  -0.269971371519943 -0.0538688252967695 0.323403111031464 1775644117.18685
   0.12665189589603  -0.363627759502138 -0.0600268551420588 0.389703827993579 1775644117.20021
  0.113406024644631  -0.461869130557686 -0.0506446199073536 0.478277009392436 1775644117.2122
 0.0898789664758844  -0.712295377196016 -0.0350555472290839 0.718798876168513 1775644117.23
0.0167465015187065  -1.00899453429282 0.0457051614051159 1.01016799460533 1775644117.26639
-0.112159050419089 -0.957896659560987 0.0995036245771963 0.969560020985296 1775644117.28649
-0.220435776388492 -0.759709104716526 0.0794527494157098 0.795023644108084 1775644117.30017
-0.250755035587142  -0.77381534647457 0.0813793104312562 0.81749059351049 1775644117.31208
-0.364390211379206  -1.03971477296773  0.169634439184107 1.11470304486605 1775644117.32997
-0.499354850388696   -1.4531504946036   0.30155119740115 1.56586549589276 1775644117.36672
-0.357065064799296  -1.05606789647514  0.196712464570915 1.13202060766716 1775644117.38633
-0.203589228075113 -0.677309062188568  0.152881607862274 0.723580628218813 1775644117.40021
-0.137800875788928 -0.601830701581255  0.132203508027551 0.631400857038356 1775644117.41232
-0.145622879958203 -0.712577811268261 0.0955908199109471 0.733560335030755 1775644117.42808
 -0.192277631663663   -1.09137542325534 -0.0337601609343746 1.10869777242956 1775644117.46198
-0.0427619663254129   -1.00777057971141 -0.0664854518204992 1.01086618422008 1775644117.48596
0.0780604632033642 -0.663308596583528  -0.10332587952493 0.675831315933742 1775644117.50022
0.0893897207131665 -0.640165579371419 -0.122645445423033 0.657909109576799 1775644117.51216
