-0.00352994638941 0.000908117990239  0.00875307711537 1775644081.2
-0.00277102232248  0.00231404288865  0.00767304870279 1775644081.22
-0.0017034671603 0.00353105579381 0.00584858330392 1775644081.24
-0.00036927891131   0.0043945105916  0.00331726322395 1775644081.25
 0.00116665026248  0.00479798708185 0.000270687429333 1775644081.26
 0.00279536968297  0.00471537181512 -0.00295771504766 1775644081.3
0.00435169303098 0.00420442150776 -0.0059385871682 1775644081.32
 0.00561946491342  0.00339099933961 -0.00821764996898 1775644081.34
 0.00635795895474  0.00243837196567 -0.00939734066408 1775644081.35
 0.00634676811698  0.00150975689215 -0.00921222889342 1775644081.36
 0.00544042527062 0.000733701764856 -0.00758292709747 1775644081.4
 0.00361976487791  0.00018060252131 -0.00463820731456 1775644081.42
  0.00102583902439 -0.000144745500419 -0.000702025849055 1775644081.44
 -0.00203557562891 -0.000294095866526   0.00375080963988 1775644081.45
 -0.00512547279415 -0.000353847483007   0.00816131983647 1775644081.46
-0.00773801632232 -0.00041668350216    0.011963834642 1775644081.5
 -0.00939211167477 -0.000554030576819    0.0146628212399 1775644081.53
 -0.00973073492851 -0.000795743891878    0.0158993948342 1775644081.54
-0.00860605073847 -0.00112130938429   0.0155002256233 1775644081.55
-0.00612877031025 -0.00146416337059   0.0135037861444 1775644081.57
 -0.0026663612134 -0.00172805152262    0.010160811288 1775644081.6
0.00121424329882 -0.0018120564041 0.00590777663147 1775644081.63
 0.00485040569475 -0.00163916244573  0.00131461514675 1775644081.64
 0.00761285488861 -0.00118208664389 -0.00298891566708 1775644081.65
  0.00903160867641 -0.000479849065272  -0.00640002343095 1775644081.67
 0.00889017000254 0.000360321626151 -0.00843106272316 1775644081.7
 0.00726666431455  0.00117828474249 -0.00878518599351 1775644081.73
 0.00451312316344  0.00179169212706 -0.00740590438422 1775644081.74
 0.00117842181692  0.00203568886704 -0.00449036446178 1775644081.75
 -0.00210723649616   0.00180197526381 -0.000462108492035 1775644081.77
-0.00476066562554  0.00106712288322  0.00409352216361 1775644081.8
 -0.00635948178546 -9.73582745173e-05   0.00852095256361 1775644081.83
-0.00671809047258 -0.00153587355224   0.0121971137518 1775644081.84
 -0.0059115312791 -0.00303774040123   0.0146273241267 1775644081.85
-0.00424443579067 -0.00437717525311   0.0155178447217 1775644081.87
-0.00217409223931 -0.00535499481957   0.0148136219098 1775644081.9
-0.00020594746794 -0.00583320073535    0.012696771849 1775644081.93
 0.00121508021014 -0.00575609262026  0.00954860319969 1775644081.94
 0.00179418934989 -0.00515503432491  0.00588375148453 1775644081.95
 0.00143886389204 -0.00413747493191  0.00226838023074 1775644081.97
 0.000264040367735  -0.00286365489616 -0.000764662014119 1775644082
-0.00144855803098 -0.00151630626413 -0.00279179459126 1775644082.03
-0.00332526572058 -0.00026941824616 -0.00355595545038 1775644082.04
-0.00499011385443 0.000738306376004 -0.00299810665097 1775644082.06
-0.00614702335234  0.00142118970882 -0.00125917006466 1775644082.07
-0.00663528546332  0.00175348892313  0.00134776582341 1775644082.1
-0.0064471422559 0.00176549512321 0.00439109181811 1775644082.13
-0.00570709991307  0.00153042216629   0.0073922894648 1775644082.14
-0.00462288788617  0.00114480374661  0.00990437826684 1775644082.16
-0.00342463879805 0.000705942246244   0.0115844390306 1775644082.17
-0.00231011197268 0.000290507818755   0.0122479904603 1775644082.2
 -0.00140968752366 -6.15700521005e-05    0.0118957122762 1775644082.23
-0.000777204431496 -0.000354531815571    0.0107074359849 1775644082.24
-0.000404228221913 -0.000633743761099   0.00900377273115 1775644082.26
-0.000248649194595  -0.00097250919594   0.00718148365185 1775644082.27
-0.000265373237844  -0.00145121924448   0.00563392211674 1775644082.3
-0.000427793875117  -0.00213304482433   0.00467162087545 1775644082.33
-0.000733121626135  -0.00304131256528   0.00445928413487 1775644082.35
-0.00119103959421 -0.00414367870887  0.00498321336665 1775644082.36
-0.00180154956374 -0.00534717779829  0.00605735811094 1775644082.37
-0.00253214976986 -0.00650631804721  0.00736757843154 1775644082.4
-0.00330506406469 -0.00744390952817  0.00854425036774 1775644082.43
-0.00400177153392 -0.00798160646288  0.00924568065219 1775644082.45
-0.00448572974856 -0.00797466741264  0.00923152946263 1775644082.46
-0.00463725090087  -0.0073438032187  0.00840813152544 1775644082.47
-0.00438954332158 -0.00609690704346  0.00683589761826 1775644082.5
-0.00375380593323 -0.00433536426888  0.00470037765372 1775644082.53
-0.00282438059072 -0.00224317392444  0.00225919514869 1775644082.55
 -0.00176120067822 -6.11143062803e-05 -0.000216849800421 1775644082.56
-0.00075390147016  0.00194874178168 -0.00249076588959 1775644082.57
2.24785963673e-05  0.00354154825223 -0.00438343323623 1775644082.6
0.000448030706875  0.00452500809478 -0.00577380372491 1775644082.63
0.000484077383865  0.00478663253827  -0.0065836663213 1775644082.65
0.000178565628988  0.00430970449357 -0.00676045813564 1775644082.66
-0.000349882814504   0.00317621598429  -0.00627059082041 1775644082.67
-0.00094462049557  0.00155638813181 -0.00510939954959 1775644082.7
 -0.00145191747298 -0.000314303165243  -0.00332486539413 1775644082.74
-0.00176015530322 -0.00216825090244 -0.00104433367788 1775644082.75
-0.00182786960107 -0.00374511213038  0.00151032848203 1775644082.76
-0.00169391299717 -0.00483215635012  0.00403174676898 1775644082.78
-0.00146709760563 -0.00529930990063   0.0061656049834 1775644082.8
-0.00129731725759 -0.00512265866927  0.00757393260166 1775644082.84
-0.00133445245206 -0.00439140037158  0.00800859664592 1775644082.85
-0.00168453332362 -0.00329557563197  0.00737483862979 1775644082.86
-0.00237399832677  -0.0020949976068   0.0057653836451 1775644082.87
-0.00333189669813 -0.00107322560738  0.00345276237233 1775644082.9
  -0.0043963329091 -0.000483751620588  0.000838860120444 1775644082.94
 -0.00534578685451 -0.000498186876433  -0.00162726877901 1775644082.95
-0.00594942103654 -0.00116731767534  -0.0035433362363 1775644082.96
-0.00602490533969 -0.00240464463586 -0.00463627563724 1775644082.98
-0.00548936755524  -0.0039981289448 -0.00481323123628 1775644083
 -0.0043898277668   -0.005649881954 -0.00416965503602 1775644083.04
-0.00290390263443 -0.00703678753292 -0.00295429274711 1775644083.05
-0.00130868369252 -0.00787932238398 -0.00150146247766 1775644083.06
 7.62658965711e-05  -0.00800288480825 -0.000148323076443 1775644083.08
0.000959040594547 -0.00737694200527 0.000842699733179 1775644083.1
 0.00114223730824 -0.00612235967827  0.00133859144261 1775644083.14
0.000570650714015 -0.00448511650165  0.00135611534805 1775644083.15
-0.000651515373338  -0.00278289576648   0.00104502088247 1775644083.16
-0.00227808671622 -0.00133730924624 0.000640106135967 1775644083.18
 -0.00396930454313 -0.000407155287565  0.000395282716001 1775644083.2
 -0.00536076210301 -0.000136932852485  0.000516505789062 1775644083.24
 -0.00613832726904 -0.000530718447188   0.00110984257833 1775644083.25
-0.00610349054427 -0.00145579610442  0.00215635091918 1775644083.26
-0.00521572647591 -0.00267436155016  0.00351823798931 1775644083.28
-0.00360316985811 -0.00389620280498  0.00497300961944 1775644083.3
-0.00153923073683 -0.00484128486153  0.00626599749871 1775644083.34
0.000610418269387  -0.0052992436166  0.00716815416476 1775644083.35
 0.00245990270051 -0.00517329910514  0.00752584109241 1775644083.37
 0.00367936021318 -0.00449910584127  0.00729214387057 1775644083.38
 0.00405906829961 -0.00343424939199  0.00653403478445 1775644083.4
 0.00354764882708 -0.00222062213429  0.00541518500355 1775644083.44
 0.00225649956287 -0.00112834120522  0.00415920122419 1775644083.45
 0.000430727725435 -0.000394475907698   0.00300166063637 1775644083.47
 -0.00160525316215 -0.000171190601148   0.00214109665572 1775644083.48
 -0.00351397436248 -0.000495449636917   0.00169893346561 1775644083.5
-0.00500802673308 -0.00128679771222   0.0016963955987 1775644083.54
-0.00589726152375 -0.00237247940077  0.00205295841227 1775644083.55
-0.00611206018109 -0.00353227682281  0.00260654227928 1775644083.57
-0.00570049768768 -0.00455078053978  0.00315120282612 1775644083.58
-0.00480283959945 -0.00526361755379  0.00348441675629 1775644083.6
 -0.0036112120326 -0.00558671553079  0.00345395039433 1775644083.64
-0.00232478232349 -0.00552312062324  0.00299417448874 1775644083.65
-0.00111101740264   -0.005148432097  0.00214364840856 1775644083.67
-8.15220702545e-05  -0.00458151417351   0.00103957347715 1775644083.68
 0.000713067745671  -0.00395022083809 -0.000110306085417 1775644083.7
 0.00126991708351  -0.0033618258616 -0.00107253025971 1775644083.74
 0.00160861519599 -0.00288509804441 -0.00163932223043 1775644083.76
 0.00174342311069 -0.00254662330794 -0.00167423184446 1775644083.77
 0.00166379829685 -0.00233949740017 -0.00114064807963 1775644083.78
  0.00133109620668  -0.00223926300822 -0.000106087047433 1775644083.8
0.000693678509962 -0.00222080789753  0.00127814899605 1775644083.84
-0.00028409229702 -0.00227092373456   0.0028152593911 1775644083.86
-0.00158897890061 -0.00239360543089  0.00430748076143 1775644083.87
-0.00313439202976 -0.00260784107828  0.00559412693247 1775644083.88
-0.00475477095303 -0.00293969266782  0.00657372800819 1775644083.9
-0.00622387024229 -0.00341151414986   0.0072072173487 1775644083.94
-0.00729466315092 -0.00403129705515  0.00750589864851 1775644083.96
-0.00775162912304 -0.00478470283342  0.00751249904305 1775644083.97
-0.00746186216313 -0.00563165137129  0.00728443625766 1775644083.98
-0.00641108726961 -0.00650856311398  0.00688559133241 1775644084
-0.00471438871732 -0.00733648355189  0.00638784439612 1775644084.04
-0.00259807091945 -0.00803419135138  0.00587846687965 1775644084.06
-0.000356612484475   -0.0085339180301   0.00546606893085 1775644084.07
  0.0017050170033 -0.00879580605958  0.00527737833125 1775644084.08
 0.00333003061068 -0.00881651501001  0.00543990216007 1775644084.1
 0.00435616442749 -0.00862831471415  0.00605068874876 1775644084.14
 0.00474002913126 -0.00828775658985  0.00713735713101 1775644084.16
 0.00455554455074 -0.00785670127494  0.00862238451914 1775644084.17
 0.00396862913435 -0.00738154809497   0.0103037061408 1775644084.18
 0.00319529927297 -0.00687762025882   0.0118630432314 1775644084.2
 0.00245326626228 -0.00632435595792    0.012907957612 1775644084.24
 0.00191766320641 -0.00567372717289   0.0130452750344 1775644084.26
 0.00168982929546 -0.00487020086076   0.0119739847235 1775644084.27
 0.00178464197619 -0.00387677895206  0.00957752692879 1775644084.28
 0.00213753221057 -0.00269932853039  0.00599126594547 1775644084.3
0.00262799696404 -0.0014013416301 0.00162298505498 1775644084.34
  0.00311301037903 -0.000103594745903  -0.00288707864139 1775644084.36
 0.00346187597826  0.00103278060606 -0.00676637062923 1775644084.37
 0.00358414038146  0.00183685020152 -0.00925451515571 1775644084.38
 0.00344428763459  0.00216551707789 -0.00976331109413 1775644084.4
 0.00306068180037  0.00193980426817 -0.00801666993831 1775644084.44
 0.00249067305168  0.00117125624979 -0.00413689840031 1775644084.46
   0.0018075817813 -2.84606743379e-05    0.0013457503027 1775644084.47
 0.00107721816698 -0.00145861807168  0.00756681992734 1775644084.48
0.000341154629492 -0.00286084699341   0.0134729651385 1775644084.5
-0.000388545679665  -0.00396604835636    0.0180115039032 1775644084.54
-0.0011221565539 -0.0045479244705  0.0203273388647 1775644084.56
-0.00187555465821 -0.00447189652866   0.0199285636406 1775644084.57
-0.00264985136896  -0.0037281813532   0.0167879105344 1775644084.58
-0.00341472797268 -0.00244043092577   0.0113593031705 1775644084.6
 -0.00410206972792 -0.000846268671584   0.00450487632658 1775644084.64
-0.00461359772103 0.000747628182439  -0.0026549379513 1775644084.66
-0.00484182887968  0.00202701464243 -0.00894045921327 1775644084.67
-0.00469915753092  0.00273480831115  -0.0133230738268 1775644084.68
-0.00414669600921  0.00272449247961    -0.01510637696 1775644084.7
-0.00321395636811  0.00199005091853  -0.0140435471966 1775644084.74
-0.00200285168768 0.000665780118519   -0.010369584337 1775644084.76
-0.000674087854898  -0.00100359083153  -0.00474468068524 1775644084.77
0.000580834570853 -0.00271515533679  0.00187712130153 1775644084.79
0.00157494188526 -0.0041701335363   0.008425823489 1775644084.8
 0.0021600550154 -0.0051319929355  0.0139044129513 1775644084.84
  0.0022529005069 -0.00546780592728    0.017553501137 1775644084.86
 0.00184878919378 -0.00516497170264   0.0189630994105 1775644084.87
0.00102158752485 -0.0043218135629  0.0181145156901 1775644084.89
-8.90276585324e-05  -0.00311682806565    0.0153493906306 1775644084.9
-0.00130061369476 -0.00176589707123   0.0112769537681 1775644084.94
 -0.00241789571476 -0.000478578536484   0.00664210016785 1775644084.96
-0.00326525879384 0.000576571278693  0.00218347419952 1775644084.97
-0.00371667153374  0.00129131715101 -0.00148920617992 1775644084.99
-0.00371767740574  0.00162030680842  -0.0039759863308 1775644085
 -0.0032949216287  0.00157015491876 -0.00511473968354 1775644085.03
-0.00255079412927   0.0011813365774 -0.00495906273649 1775644085.06
-0.00164386029637 0.000509806898024 -0.00372023408908 1775644085.07
-0.000759010974889  -0.00038623593644  -0.00169402450353 1775644085.09
-7.36292364339e-05  -0.00145172392576   0.00080685791182 1775644085.1
0.000273316259209 -0.00263236383108  0.00349975118919 1775644085.13
0.000203667579029 -0.00386698701597  0.00615268143017 1775644085.16
-0.000289018029695  -0.00507846247605   0.00858210470905 1775644085.17
-0.00114032060658 -0.00616749392806   0.0106376549382 1775644085.19
-0.00222597340524 -0.00701313087668   0.0121860262529 1775644085.2
-0.00338069613599 -0.00748245356099   0.0131040908786 1775644085.23
-0.00442238685975 -0.00744979193083   0.0132862566681 1775644085.26
-0.00517906266201 -0.00682324050674   0.0126647654734 1775644085.27
 -0.0055154267099 -0.00557353186798   0.0112361277286 1775644085.29
-0.00535532284658 -0.00375822876075  0.00908381603577 1775644085.3
-0.00469622313739 -0.00153361961524  0.00638755551345 1775644085.33
-0.00361276752653 0.000851624801561  0.00341290382557 1775644085.36
-0.00224826125079  0.00308313052604 0.000480225663304 1775644085.37
-0.000795445320512   0.00482497903763  -0.00208202266801 1775644085.39
0.000529997696046  0.00577401323312  -0.0039902591365 1775644085.4
 0.00151859058417  0.00571426829223 -0.00505350886272 1775644085.42
 0.00199442516385  0.00456111010544 -0.00520526129617 1775644085.46
 0.00183753206643  0.00238632467691 -0.00451217224477 1775644085.48
  0.00099957017414 -0.000581469778559  -0.00315734199239 1775644085.49
-0.000487792125056  -0.00398271341168  -0.00140147737182 1775644085.5
-0.00251213356946 -0.00737635632841 0.000469704329995 1775644085.52
-0.00488766198615  -0.0103059068525   0.0021999960014 1775644085.56
-0.0073712262146 -0.0123716238132  0.0036063699035 1775644085.58
-0.00968690033498  -0.0132963299342  0.00460127776272 1775644085.59
-0.0115578868207 -0.0129723676641 0.00518850349182 1775644085.6
-0.0127428995104 -0.0114798688502 0.00543503316022 1775644085.62
 -0.0130725528531 -0.00907170319123  0.00542891659074 1775644085.66
-0.0124799592798 -0.0061273062005 0.00523795269055 1775644085.67
 -0.0110191546186 -0.00308440913895  0.00488414536738 1775644085.69
 -0.00886565464691 -0.000362640783593   0.00434367401934 1775644085.7
-0.00629581923301  0.00170531216037  0.00357300926667 1775644085.72
-0.00364575368891  0.00292125472271   0.0025518406044 1775644085.76
-0.00125550906079  0.00323918663275  0.00132632266408 1775644085.77
0.000590996306195  0.00275183144841 3.46218064053e-05 1775644085.79
 0.00171724819321  0.00165220830397 -0.00109833549911 1775644085.8
 0.00208416243314 0.000182236659954 -0.00180024930686 1775644085.82
 0.00179078560403 -0.00141746394582 -0.00181705760711 1775644085.86
  0.00104479227694  -0.00294460943131 -0.000987860456855 1775644085.87
0.000109928694083  -0.0042528883419 0.000691795604807 1775644085.89
-0.00075611007577 -0.00525108162604  0.00303736696042 1775644085.9
-0.00135732717481  -0.0058904309251  0.00568562867243 1775644085.91
-0.00159464879513 -0.00614967557392  0.00814986376856 1775644085.96
-0.00147286469176 -0.00602589913642   0.0099110418619 1775644085.97
-0.00107957829496 -0.00553486964684    0.010526810854 1775644085.99
-0.000544215833033  -0.00471885539209   0.00973447440684 1775644086
9.71829006258e-06 -0.00365540240255  0.00752358399224 1775644086.02
0.000504745871439 -0.00245928495908  0.00415891085572 1775644086.06
0.000930314993742 -0.00127240573995 0.000144752299119 1775644086.07
  0.00133880759451 -0.000241655189324   -0.0038651681736 1775644086.09
 0.00181822886291  0.00050978868177 -0.00719453500244 1775644086.1
 0.00244996147285 0.000908980909173 -0.00928030298762 1775644086.11
 0.00326463616775 0.000949054925808 -0.00978629469322 1775644086.15
 0.00421039470697 0.000689306453349 -0.00866770502155 1775644086.18
 0.00514498932139 0.000239449061994  -0.0061714965776 1775644086.19
 0.00585673736428 -0.00026732561986 -0.00277369884101 1775644086.2
  0.00611100783895 -0.000705001040794  0.000929719824405 1775644086.21
  0.00571113683747 -0.000981311173831   0.00435084891228 1775644086.25
 0.00455785555386 -0.00105441599956  0.00702575277627 1775644086.27
  0.00269091397081 -0.000937095324252   0.00869194769954 1775644086.29
 0.000300646280765 -0.000689132211509   0.00931208731193 1775644086.3
 -0.00229546506234 -0.000400881707516   0.00904291054015 1775644086.31
 -0.00470758959773 -0.000172118572283   0.00816251442004 1775644086.35
-0.00654837693237 -9.0376286362e-05  0.00697892992861 1775644086.37
 -0.00751147650239 -0.000212548993231   0.00574622410771 1775644086.39
 -0.00743623425039 -0.000552803846759   0.00461026751866 1775644086.4
-0.00634391003179 -0.00107890453514  0.00359633768503 1775644086.41
-0.00443696268501 -0.00171783572916  0.00263790718581 1775644086.44
-0.00206109641432 -0.00237011934275  0.00163396622626 1775644086.47
0.000361941078593  -0.0029304941544 0.000514375718636 1775644086.49
  0.00241623392738  -0.00331093197456 -0.000708849885813 1775644086.5
 0.00377040713162 -0.00346077898028 -0.00192145296355 1775644086.51
 0.00423633705967 -0.00337879215845 -0.00292521152349 1775644086.54
 0.00379618204064 -0.00311344204611  -0.0034898818118 1775644086.57
 0.00259395405624 -0.00275090434804 -0.00342376522455 1775644086.59
 0.00089621563194 -0.00239374934871 -0.00264191816592 1775644086.6
-0.000967028661545  -0.00213615469994  -0.00121099379848 1775644086.61
-0.00266707558736 -0.00204243820894 0.000644429538577 1775644086.64
-0.00393328688909 -0.00213447059408  0.00257886817917 1775644086.67
-0.00459172374261 -0.00239055356953  0.00419901489237 1775644086.69
-0.00458063660878 -0.00275472297799  0.00515499451269 1775644086.7
-0.00394329509654   -0.003152462941  0.00522600202358 1775644086.71
-0.00280333048959 -0.00350753432169  0.00437730142109 1775644086.74
-0.00133070050541 -0.00375536358935  0.00277298944561 1775644086.77
0.000292930334882 -0.00385065394747 0.000740895195402 1775644086.79
 0.00190206362064 -0.00376940919559 -0.00130107166174 1775644086.8
 0.00336412616154 -0.00350728312966 -0.00293776291232 1775644086.81
 0.00458432376129 -0.00307659082084 -0.00384521181462 1775644086.83
 0.00550109968267 -0.00250368677121 -0.00385354658936 1775644086.87
 0.00607694148685 -0.00182734169293 -0.00297140399918 1775644086.89
 0.00628984200671 -0.00109775726619 -0.00136965417528 1775644086.9
 0.00612945660746 -0.00037519412707 0.000667566114169 1775644086.91
 0.00559943143325 0.000273067021218  0.00280958642603 1775644086.93
 0.00472455657519 0.000778492727955  0.00474639200892 1775644086.97
0.00355936777833 0.00108011691874 0.00624104742902 1775644086.99
0.00219410066319  0.0011355816261 0.00715764685769 1775644087
0.000754398899852 0.000932304333363  0.00746240845024 1775644087.01
-0.000607493236448  0.000495766123284   0.00720276788402 1775644087.03
 -0.00173048752811 -0.000108218397945   0.00647459937215 1775644087.07
 -0.00246964384661 -0.000779504570022    0.0053895860675 1775644087.09
-0.00272446493957 -0.00139830895415  0.00405280430698 1775644087.1
-0.00246470064622 -0.00184660432164  0.00255551268074 1775644087.11
-0.00174693966556 -0.00203195887486 0.000981737747404 1775644087.13
-0.000715822568724  -0.00190818325321 -0.000578192374446 1775644087.17
0.000413906212182 -0.00148725990553 -0.00201652264911 1775644087.19
  0.00139414755212 -0.000838785624184  -0.00320739505389 1775644087.2
  0.00199344338933 -7.61950236516e-05  -0.00402013486535 1775644087.21
 0.00204981772621 0.000667447617163  -0.0043441555435 1775644087.23
 0.00151333401725    0.001268326112 -0.00411827333729 1775644087.27
0.000466072614406  0.00163820330306 -0.00335507455213 1775644087.29
-0.000888013871245   0.00174163012303  -0.00215202431001 1775644087.3
  -0.0022633008467   0.00160006447129 -0.000684520840106 1775644087.31
-0.00335442536199    0.001282624568 0.000819245239345 1775644087.33
-0.00390528416911 0.000886705559551  0.00211723487004 1775644087.36
-0.00376799864189 0.000513916374066  0.00299839357258 1775644087.39
-0.00293705411593 0.000247286929527  0.00332355538839 1775644087.4
-0.00155024169958  0.00013465924758  0.00305281481969 1775644087.41
0.000143304479212 0.000181190391379  0.00225238854634 1775644087.43
 0.00183931124887 0.000351591040983   0.0010787545086 1775644087.46
   0.0032444298236  0.000580625791092 -0.000256293189239 1775644087.49
  0.0041361102418 0.000788912379301 -0.00153076099694 1775644087.5
 0.00440273180844 0.000900432482758 -0.00255586688852 1775644087.51
 0.00405609911086 0.000858424942295 -0.00320639875983 1775644087.53
 0.00321562358231 0.000637202575406 -0.00343085307699 1775644087.56
 0.00207043054988 0.000248473851422 -0.00324090209797 1775644087.59
 0.000830555208237 -0.000258396564664  -0.00268677521498 1775644087.6
-0.000319883694363 -0.000802174288475  -0.00182987482631 1775644087.61
 -0.00125642864983  -0.00128112304034 -0.000724412175381 1775644087.63
-0.00192839747101 -0.00158898202607 0.000584328711974 1775644087.65
-0.00235260673503 -0.00163392961936  0.00204482761916 1775644087.69
-0.00259123627494 -0.00135812064999  0.00357472773612 1775644087.7
 -0.00272183462034 -0.000754559873421   0.00503942602551 1775644087.71
-0.00280850016356 0.000122519805787  0.00624697260512 1775644087.72
-0.0028819542289 0.00115751146515 0.00696768154416 1775644087.75
-0.00293313735024  0.00218600193905  0.00697823283815 1775644087.78
-0.00292101849244  0.00301997982728  0.00612037237265 1775644087.8
-0.00279154116466  0.00348222539835  0.00435713411943 1775644087.81
-0.00250192703753  0.00344322753177  0.00180773234411 1775644087.82
-0.00204340815388  0.00285214981845 -0.00125302683651 1775644087.85
-0.00145591281424  0.00175378027451 -0.00443506740458 1775644087.88
-0.000830072579735  0.000286226046827  -0.00730544046746 1775644087.9
-0.000294836972367  -0.00134127230583  -0.00947513822608 1775644087.91
7.47706154742e-06 -0.00288593874823  -0.0106778895209 1775644087.92
-4.65357555001e-05  -0.00411601327405   -0.0108205387874 1775644087.95
-0.00052928905388 -0.00485217721919 -0.00999278667328 1775644087.99
-0.00143819652874 -0.00499694539775 -0.00843565209191 1775644088
-0.00268580535599 -0.00454653446861 -0.00647919284356 1775644088.01
-0.00410676511938 -0.00358418567888 -0.00446733738039 1775644088.03
  -0.005480443166 -0.00225815341939  -0.0026892561999 1775644088.05
 -0.00656469363771 -0.000750591366873  -0.00133271332404 1775644088.08
-0.00713431081056 0.000755161797512 -0.00046714872696 1775644088.1
 -0.00701732155212     0.002101995542 -5.55457480315e-05 1775644088.11
-0.00612330781354  0.00317642527756 1.29658443807e-05 1775644088.12
-0.00445985886465  0.00391435698254 -0.00011842483242 1775644088.14
 -0.00213538185315    0.0042966793963 -0.000312943286771 1775644088.18
 0.000651623847814   0.00433834411696 -0.000467559031992 1775644088.2
   0.0036352440729   0.00407543614846 -0.000524997419054 1775644088.21
  0.00651404888006   0.00355423485225 -0.000471246389161 1775644088.22
  0.00898861013088   0.00282479267366 -0.000323050994306 1775644088.24
   0.0108004405465     0.001939644418 -0.000111912898457 1775644088.28
  0.0117678174961 0.000956441811985 0.000128842134233 1775644088.3
    0.011813803301 -5.79466852425e-05  0.000369365304188 1775644088.31
  0.0109818877922 -0.00102472909407 0.000580037147091 1775644088.32
 0.00943542635637 -0.00185426266008  0.00072299570945 1775644088.34
 0.00743889450097 -0.00245220772584 0.000745047162208 1775644088.38
 0.00532202105034 -0.00273071878755 0.000579357041469 1775644088.4
  0.0034314890815 -0.00262327421772 0.000160784868645 1775644088.41
  0.00207796884216  -0.00210051116701 -0.000545778215922 1775644088.43
 0.00148767551318 -0.00118348268137 -0.00151151113676 1775644088.44
 0.00176691964982 4.95807784477e-05 -0.00261713649312 1775644088.48
 0.00288548589817   0.0014662599563 -0.00364815552909 1775644088.5
 0.00468093706463  0.00289413475654 -0.00432194870208 1775644088.51
  0.0068821318242  0.00414499048799 -0.00434716597507 1775644088.52
 0.00914733570068  0.00504513204318 -0.00350357006692 1775644088.54
  0.0111108840017  0.00546591169665 -0.00172024131379 1775644088.58
  0.0124323544441  0.00534797624612 0.000873627875718 1775644088.6
  0.012842944591  0.0047137609873 0.00394583581168 1775644088.61
 0.0121844165158 0.00366519005762 0.00701352493022 1775644088.62
 0.010436237577 0.0023667762651 0.0095414494236 1775644088.64
0.00772675663454 0.00101749293321  0.0110622238811 1775644088.68
 0.00432507855283 -0.00018292354238   0.0112869046155 1775644088.7
0.000612200132997 -0.00106671242578   0.0101758114801 1775644088.71
-0.00296707030733 -0.00152393481725  0.00794983388949 1775644088.72
-0.00596632075068 -0.00151720526943  0.00503857136706 1775644088.74
-0.00800532629073 -0.00108341727103  0.00197891604067 1775644088.78
 -0.00883239160345 -0.000323051845799 -0.000708870789616 1775644088.8
-0.00836955596702 0.000620119768452 -0.00263478935478 1775644088.81
-0.00673077037535  0.00158454933658 -0.00361321429467 1775644088.82
-0.00420749612542  0.00241662764161 -0.00368000058076 1775644088.84
-0.00122239098374  0.00299204727103 -0.00305142690107 1775644088.87
 0.00174149795829   0.0032296522112 -0.00203990037593 1775644088.9
  0.00422298536269   0.00309657883538 -0.000952521640495 1775644088.91
  0.00586039244241   0.00260552658164 -1.85033725786e-06 1775644088.92
 0.00644910827252  0.00180657178848 0.000746977819928 1775644088.94
 0.00596782176808 0.000776614368917  0.00138016867552 1775644088.97
 0.00456914453248 -0.00039085884639  0.00209173146952 1775644089
 0.00253826064669 -0.00159426911362  0.00310667812912 1775644089.01
0.000230000576156 -0.00273077854495  0.00459334169198 1775644089.03
-0.00200133709635 -0.00370259739693  0.00658935245453 1775644089.04
-0.00386471593384 -0.00442410015442  0.00896185328114 1775644089.07
-0.00517580405367 -0.00483044120817   0.0114135855605 1775644089.1
-0.00587436921208 -0.00488719789351   0.0135346877941 1775644089.11
-0.00601486510085 -0.00459930653094   0.0148883456254 1775644089.13
-0.00573507357503 -0.00401662899022   0.0151098806041 1775644089.14
-0.00521182514222 -0.00323331454868   0.0139957181017 1775644089.17
-0.00461476502284 -0.00237898603543     0.01156155943 1775644089.2
 -0.0040686246977 -0.00160160985852  0.00805680614082 1775644089.21
-0.00363179551656 -0.00104421058995  0.00393238136749 1775644089.23
  -0.0032948602664 -0.000819635984376 -0.000231179577241 1775644089.24
 -0.00299796273979 -0.000988718780485  -0.00382123166504 1775644089.26
-0.00266138982821 -0.00154702765682 -0.00629815073189 1775644089.3
-0.00222047022084 -0.00242384973263 -0.00728969560331 1775644089.31
 -0.0016547535823 -0.00349432326707 -0.00665856148517 1775644089.33
-0.00100290524243 -0.00460237173029 -0.00453152921229 1775644089.34
-0.000358568202423  -0.00558925499623  -0.00128457973153 1775644089.36
0.000152407606231 -0.00632111170846  0.00251471052033 1775644089.4
0.000407873153317 -0.00670929253536   0.0061990147471 1775644089.41
0.000329151649903 -0.00671936110937  0.00911259661858 1775644089.43
-8.62037194597e-05  -0.00636768076153    0.0107233063792 1775644089.44
-0.00074856327931 -0.00570772161499   0.0107154987811 1775644089.46
-0.00148364489541 -0.00481089293314  0.00904687820485 1775644089.5
-0.00206402249005 -0.00374814116272  0.00595832803773 1775644089.51
-0.00225915926293 -0.00257816869854  0.00193414519461 1775644089.53
 -0.0018928614901 -0.00134577993557 -0.00238071470803 1775644089.54
-0.000894004588695 -9.01876725942e-05  -0.00629150491494 1775644089.56
0.000673041632297  0.00114058032941 -0.00917213050213 1775644089.6
0.00260750780538 0.00227539889582 -0.0105689261498 1775644089.61
0.00460288902139 0.00321242543747 -0.0102704518828 1775644089.63
 0.00630319442466  0.00382305253593 -0.00833124190347 1775644089.64
 0.00737231474785  0.00396938602406 -0.00504759297767 1775644089.66
  0.0075610672432  0.00353359359384 -0.00089408051109 1775644089.7
0.00675767891541 0.00245379274682 0.00356239180884 1775644089.72
 0.00501199590912 0.000758030531748  0.00775102227562 1775644089.73
 0.00252979282445 -0.00141381451497   0.0111706969564 1775644089.74
-0.000360534894963  -0.00380976310778    0.0134387057226 1775644089.76
-0.00326194833333 -0.00609305358914   0.0143135746929 1775644089.8
-0.00577343271129 -0.00789657801279   0.0136983191318 1775644089.82
-0.00755405027823 -0.00889601404853   0.0116335875614 1775644089.83
-0.00837551071597 -0.00888605724272  0.00828857979139 1775644089.84
-0.00815459217645 -0.00784037975574  0.00395258891004 1775644089.86
 -0.00696044539682  -0.00593743153439 -0.000975886627005 1775644089.9
-0.00499638967081 -0.00354118503034 -0.00600948141409 1775644089.92
-0.00256041294301 -0.00113675651556  -0.0106088326415 1775644089.93
7.65967227202e-06 0.000767435753544  -0.0142388581331 1775644089.94
0.00238221760269 0.00174993480487  -0.016440256243 1775644089.96
0.00430095226583 0.00157344104914 -0.0169047068071 1775644090
 0.00559878674321 0.000245265089779  -0.0155374280179 1775644090.02
 0.00622195261138 -0.00197481585822  -0.0124904357125 1775644090.03
 0.00622163523186 -0.00462316026517 -0.00815466773794 1775644090.04
 0.00573048383776 -0.00712804529767 -0.00310806888972 1775644090.06
 0.00492828094931 -0.00893235333004   0.0019726526924 1775644090.1
 0.00400470772517 -0.00961655728261  0.00641978948196 1775644090.12
 0.00312703506515 -0.00899491615332  0.00968040851135 1775644090.13
 0.00241858102759 -0.00716302493258   0.0113997195934 1775644090.14
 0.00195032359611 -0.00448478088282   0.0114678366761 1775644090.16
 0.00174417649689 -0.00151973649522   0.0100246608373 1775644090.2
0.00178341798466 0.00109466978495 0.00742626460068 1775644090.22
 0.0020246084299 0.00278037961725 0.00418223860749 1775644090.23
 0.00240635415322  0.00314417563131 0.000876151713396 1775644090.24
 0.00285302633349  0.00206193601503 -0.00191884440138 1775644090.26
  0.00327498092149 -0.000298083580932  -0.00371888702271 1775644090.3
 0.00356957626182 -0.00351754748615 -0.00419440408209 1775644090.32
 0.00362805352635 -0.00702393254268  -0.0032147681008 1775644090.33
  0.00335146565931   -0.0102147876398 -0.000867906910701 1775644090.34
0.00267475578751 -0.0125791646578 0.00254772982453 1775644090.36
0.00159336036897 -0.0137880080707 0.00655872000003 1775644090.4
0.000183425238111  -0.0137359148438   0.0105763182007 1775644090.42
-0.00139346990485  -0.0125310925443   0.0139734988765 1775644090.43
-0.00290680037621  -0.0104437411563   0.0161701897202 1775644090.44
-0.00409447270011  -0.0078316250855   0.0167163579127 1775644090.46
-0.00471401596164 -0.00506366647128    0.015362846419 1775644090.5
-0.00459540437837  -0.0024586391107    0.012110951005 1775644090.52
 -0.00368172956494 -0.000248621901474   0.00723313946544 1775644090.53
-0.00204658842229  0.00143153739533  0.00125901444865 1775644090.54
0.000116778538616  0.00253439972854 -0.00507676870817 1775644090.56
0.00253180339289 0.00307904052799 -0.0109235792703 1775644090.6
0.00489065319898 0.00312818765162 -0.0154334963937 1775644090.62
 0.0069083914697 0.00276936627999 -0.0178946945468 1775644090.63
0.00836581620139 0.00210185797056 -0.0178578472765 1775644090.64
0.00913186195055 0.00122807190449 -0.0152304018642 1775644090.66
 0.00916345766951 0.000246795875688  -0.0103157352065 1775644090.7
  0.00848803010717 -0.000753387644237  -0.00378296671543 1775644090.72
 0.00717879731291 -0.00170049026333  0.00343264728506 1775644090.73
 0.00533381603209 -0.00254380920214   0.0102827729674 1775644090.75
 0.00306631693222 -0.00325502320868   0.0157832858288 1775644090.76
0.000507783939791  -0.0038246400585   0.0191801213759 1775644090.8
-0.00218096809689 -0.00425438769926   0.0200703064403 1775644090.82
-0.00479946602301 -0.00454775539593    0.018455018445 1775644090.83
 -0.0071072800107 -0.00470166537488   0.0147168003201 1775644090.85
-0.00884013859941 -0.00470185378128  0.00952943036814 1775644090.86
-0.00974363421715 -0.00452328228793  0.00372251943715 1775644090.9
-0.00961981027125 -0.00413548235296 -0.00186923597995 1775644090.92
-0.00837696139681 -0.00351169660869 -0.00654145416451 1775644090.93
-0.00607015848155 -0.00264011745487   -0.009815419439 1775644090.95
-0.00292005140349 -0.00153521115541  -0.0114795811532 1775644090.96
 0.000699309653157 -0.000246871456604   -0.0115764242118 1775644091
0.00430674536784 0.00113499780555   -0.01034601047 1775644091.02
 0.00738922348512  0.00248273488453 -0.00814583901878 1775644091.04
 0.00949266597109   0.0036416468228 -0.00536940108184 1775644091.05
  0.0103088010739  0.00444956571137 -0.00238247715378 1775644091.06
 0.00973729641208  0.00476358553194 0.000511827147845 1775644091.1
0.00790690743232 0.00448985310726 0.00307834366126 1775644091.12
0.00514877948208 0.00361003563995 0.00513333689614 1775644091.14
0.00192685364615 0.00219707584943 0.00651956685062 1775644091.15
-0.00125868100103 0.000413933591717    0.007087164143 1775644091.16
-0.00397174802125 -0.00150760868105  0.00669127439734 1775644091.2
-0.00592000276765 -0.00330602684503  0.00521111513149 1775644091.22
-0.00699410527882 -0.00473979429429   0.0025874378393 1775644091.24
-0.00725737138925 -0.00563677767175 -0.00113164573159 1775644091.25
 -0.0068898332677 -0.00593122598371 -0.00575103104251 1775644091.26
-0.00610368425375 -0.00567849547772  -0.0109103571843 1775644091.3
-0.00505616012515 -0.00504266033736  -0.0160985818093 1775644091.32
 -0.0037883402736 -0.00425856784428  -0.0207055527043 1775644091.34
-0.00221282990694 -0.00357590082496  -0.0241055198928 1775644091.35
-0.000160412570834   -0.0031969558036   -0.0257587153976 1775644091.36
  0.0025218636117 -0.00322150417554  -0.0253110787818 1775644091.4
 0.00584682936474 -0.00361134985202  -0.0226707299603 1775644091.43
 0.00957678505815 -0.00418432127945  -0.0180435120173 1775644091.44
   0.013170132524 -0.00464266434226  -0.0119179984215 1775644091.45
  0.0158210780143 -0.00463448453947 -0.00500071945691 1775644091.46
  0.0166089976212 -0.00383984387526  0.00188756424118 1775644091.5
  0.0147459344759 -0.00206666019873  0.00793626667379 1775644091.53
 0.00987983575936 0.000662930769664   0.0124685545702 1775644091.54
0.00238523702658 0.00405660147323  0.0150441226808 1775644091.55
-0.00643999376742  0.00754511495099    0.015526808728 1775644091.56
-0.0143476225944  0.0103380568366  0.0141105565952 1775644091.6
-0.018331247809 0.0115458774868 0.0113048187847 1775644091.63
-0.0150437126609  0.0103596015784 0.00788546767051 1775644091.64
-0.0013933358202 0.00626518683987 0.00481852698154 1775644091.65
  0.0247767908128 -0.00074440257714  0.00316216867169 1775644091.67
 0.0640561061087 -0.0100065012277  0.0039496737257 1775644091.7
  0.115018859537 -0.0201251061121 0.00805532884437 1775644091.73
  0.174078700862 -0.0290476217603  0.0160487070796 1775644091.74
  0.235714196528 -0.0343024898417  0.0280506356615 1775644091.75
   0.29306598159 -0.0333866265968  0.0436140092563 1775644091.77
  0.338832452544 -0.0242546898023  0.0616601362353 1775644091.8
   0.366326611429 -0.00582830744849    0.080501900989 1775644091.83
 0.370516065667 0.0215782457854 0.0979758002438 1775644091.84
 0.348860909327 0.0560211349995  0.111686073297 1775644091.85
0.301792989213  0.09396174872  0.11933914397 1775644091.87
 0.23274018262  0.13061104605 0.119121185811 1775644091.9
0.147679965151 0.160560493405 0.110052458182 1775644091.93
0.0542930281891  0.178612172468 0.0922451560799 1775644091.94
-0.0391363614372   0.180667555195  0.0670007109037 1775644091.96
 -0.12487694119  0.164506781512 0.0367080037748 1775644091.97
 -0.196756440832   0.130297330224 0.00454164438105 1775644092
 -0.250841511684  0.0807144508981 -0.0259987381924 1775644092.03
 -0.285686316371  0.0206286546657 -0.0516313633654 1775644092.04
 -0.302137372975  -0.043596955795 -0.0698195889954 1775644092.06
 -0.302775376672  -0.105074735361 -0.0791853142635 1775644092.07
 -0.291145085901  -0.157444847027 -0.0797301129242 1775644092.1
-0.270955649799  -0.19581460795  -0.07282139377 1775644092.13
 -0.245421210866  -0.217415039012 -0.0609443554962 1775644092.14
 -0.216862191642  -0.221867835767 -0.0472628489908 1775644092.16
 -0.186616189539  -0.211037430746 -0.0350656833359 1775644092.17
 -0.155231545098   -0.18852288391 -0.0271940953473 1775644092.2
 -0.122853061493    -0.1589064904 -0.0255486261791 1775644092.23
-0.089671040294 -0.126910476707 -0.030759660606 1775644092.25
-0.0562989693971 -0.0966171454918 -0.0420776298379 1775644092.26
-0.0239715998175 -0.0708837691453 -0.0575005386126 1775644092.27
0.00549403100499 -0.0510376661569 -0.0741141600132 1775644092.3
 0.0299700109626 -0.0368786065761 -0.0885815547823 1775644092.33
 0.0474582996694 -0.0269566532828 -0.0976914044636 1775644092.35
 0.0565955565901 -0.0190456438795 -0.0988652858295 1775644092.36
 0.0570991558621   -0.01070489916 -0.0905351605836 1775644092.37
   0.050040937284 0.000181695113291  -0.0723318443345 1775644092.4
 0.0378688814194  0.0149815238797 -0.0450661393111 1775644092.43
 0.0241473321085  0.0340628183448 -0.0105267532141 1775644092.45
0.0130433215282 0.0567378816258 0.0288469434418 1775644092.46
0.00863885138468  0.0813844455328  0.0703410439561 1775644092.47
0.0141868761325   0.10570388559  0.111315909624 1775644092.5
0.0314455284888  0.127061521388  0.149467820854 1775644092.53
0.0602180278282  0.142852315721  0.182971125905 1775644092.55
0.0981957674699   0.15084207807  0.210500326261 1775644092.56
0.141153696501 0.149445900966 0.231160401389 1775644092.57
0.183487506196 0.137918430294  0.24437298447 1775644092.6
0.219020677466 0.116442565153 0.249771164457 1775644092.63
 0.241956719437 0.0861140044382  0.247145716468 1775644092.65
 0.247818222509 0.0488293369442   0.23646371084 1775644092.66
  0.234207804409 0.00709507765183   0.217953288185 1775644092.67
  0.201250722938 -0.0362172838789   0.192223642446 1775644092.7
  0.151633224531 -0.0781415396789   0.160373571262 1775644092.73
0.0902261505652 -0.115884819086  0.124039427639 1775644092.75
0.0233648559743 -0.147070444684 0.0853449201547 1775644092.76
-0.0420751425557  -0.169937550959  0.0467387649915 1775644092.78
-0.0996304433643  -0.183482573903  0.0107364379148 1775644092.8
-0.144058939128 -0.187529017366 -0.020388587815 1775644092.83
-0.171880965987 -0.182713603435 -0.044899526057 1775644092.85
 -0.181600008781  -0.170381986519 -0.0618101394221 1775644092.86
 -0.173626861531  -0.152397309511 -0.0709682482207 1775644092.88
 -0.149988434719  -0.130879218584 -0.0729917162555 1775644092.9
 -0.113926043408  -0.107906540328 -0.0690774316216 1775644092.94
-0.0694764294513 -0.0852295092241 -0.0607349442092 1775644092.95
-0.0210926760365 -0.0640429952947 -0.0495115896861 1775644092.96
 0.0266809980051 -0.0448673164051 -0.0367715383045 1775644092.98
   0.06949978843 -0.0275666213457 -0.0235703723162 1775644093
  0.103505593069  -0.011508228129 -0.0106375013564 1775644093.04
  0.125631049117 0.00416520402639 0.00154958031261 1775644093.05
 0.133911414706  0.020207646882 0.0126349204815 1775644093.06
 0.127761232937 0.0369610231533 0.0222407873867 1775644093.08
 0.108147889697 0.0541426779812  0.029850226417 1775644093.1
0.0775904969688 0.0707887068622 0.0347419396404 1775644093.14
0.0399346806014 0.0853797353323  0.035988754253 1775644093.15
-0.000102535024684    0.0961335844107    0.0325177372563 1775644093.16
-0.0375703201463   0.101407650664  0.0232214110327 1775644093.18
-0.0680088211701   0.100122823242 0.00710537121699 1775644093.2
-0.0881363919956  0.0921085936536 -0.0165443701361 1775644093.24
-0.0963710161457  0.0782801527648 -0.0479934913627 1775644093.25
-0.0930810018952  0.0605918472795 -0.0869143653547 1775644093.26
-0.0805055976617  0.0417605759144  -0.132292197999 1775644093.28
-0.0623456111156  0.0248059506627  -0.182412427479 1775644093.3
-0.0430870475062  0.0124980954868  -0.234954632718 1775644093.34
-0.027175946238 0.0068279327105 -0.287204409469 1775644093.35
-0.0181986938981 0.00861322322209  -0.336372918696 1775644093.36
-0.0182292148627   0.017327215651  -0.379988015764 1775644093.38
-0.0274767302179   0.031191457508  -0.416296795908 1775644093.4
-0.0443068842668  0.0475194692611  -0.444603444686 1775644093.44
-0.0656264194801  0.0632445739488  -0.465464444135 1775644093.45
-0.0875373566822  0.0755242001967  -0.480679495362 1775644093.47
-0.106104276328 0.0822936230608 -0.493050898991 1775644093.48
-0.118056767683 0.0826498638968 -0.505930768193 1775644093.5
-0.121275781825 0.0769815288494 -0.522623449993 1775644093.54
-0.114979958267 0.0668167576899 -0.545747329469 1775644093.55
-0.099615447409 0.0544273090214 -0.576675945528 1775644093.57
-0.0765332201182  0.0422861895475  -0.615168978762 1775644093.58
-0.0475866063437  0.0325128973474  -0.659271386336 1775644093.6
-0.0147848787459   0.026442815191  -0.705510863629 1775644093.64
0.0199022978067 0.0244233862719 -0.749369810104 1775644093.65
0.0545634967946 0.0258782079544 -0.785958455594 1775644093.67
0.0872330256406 0.0296083896804 -0.810779343157 1775644093.68
 0.115743919993 0.0342386430795 -0.820455245544 1775644093.7
 0.137657537819 0.0386802871617 -0.813294961161 1775644093.74
 0.150356342083 0.0424830498023 -0.789594620773 1775644093.76
 0.151332525903 0.0459805938301 -0.751615123593 1775644093.77
  0.13863921701 0.0501907740821 -0.703235056306 1775644093.78
 0.111412568753 0.0564953039839 -0.649343279567 1775644093.8
0.0703381156199 0.0661787541198 -0.595090885908 1775644093.84
0.0179321095092 0.0799411557044 -0.545151658823 1775644093.86
-0.0414617730879  0.0975056128257  -0.503132742114 1775644093.87
-0.102005676608  0.117422535461 -0.471234104048 1775644093.88
  -0.1570099601   0.13713105181 -0.450189867737 1775644093.9
-0.199800217902  0.153284821297 -0.439456681615 1775644093.94
-0.224675652746  0.162294177012 -0.437563041866 1775644093.96
-0.227800605448  0.160989407875 -0.442510971888 1775644093.97
-0.207874407237  0.147279744857 -0.452130402403 1775644093.98
-0.166456348701   0.12067542357 -0.464320729905 1775644094
   -0.107878011 0.0825587292338 -0.477160875903 1775644094.04
-0.0387455974777  0.0361324852967  -0.488914134865 1775644094.06
 0.0328927056617 -0.0139656108574  -0.497984799381 1775644094.07
 0.0985802638706 -0.0623283686798  -0.502892820648 1775644094.08
 0.150520799143 -0.103611799631 -0.502319651102 1775644094.1
 0.182520839829 -0.133386347347 -0.495247609936 1775644094.14
 0.190681644038 -0.148851816274 -0.481175585065 1775644094.16
 0.173774648675 -0.149286499697 -0.460356978104 1775644094.17
 0.133294557119 -0.136151073665 -0.433982527129 1775644094.18
 0.073228530645 -0.112830880058 -0.404228611153 1775644094.2
-0.000400259976646   -0.0840633699132    -0.374112792822 1775644094.24
-0.0801581667163 -0.0551498507513  -0.347138578908 1775644094.26
 -0.157949919219 -0.0310848027342  -0.326761865736 1775644094.27
 -0.225850204866 -0.0157476691033  -0.315760951395 1775644094.28
 -0.276967534433 -0.0112898319869  -0.315628667585 1775644094.3
 -0.306265723722 -0.0178152542282  -0.326119209564 1775644094.34
 -0.311240162072 -0.0334025253772  -0.345067592771 1775644094.36
 -0.292329884439 -0.0544578134339  -0.368556020705 1775644094.37
 -0.252957162161 -0.0763333661365  -0.391435201847 1775644094.38
 -0.199131326871 -0.0941048498303  -0.408132539872 1775644094.4
-0.138628989516 -0.103379796034 -0.413610209768 1775644094.44
-0.0798533469476  -0.101010767796  -0.404292100489 1775644094.46
-0.0305575552642 -0.0856077887955  -0.378772771705 1775644094.47
0.00333373449451 -0.0577790771267  -0.338158216959 1775644094.48
 0.0185735230451 -0.0200703025547  -0.285960406837 1775644094.5
0.0149420404945 0.0233852757158 -0.227558779396 1775644094.54
-0.0049655763731  0.0674542264553  -0.169330656612 1775644094.56
-0.0364474327007   0.106743050676  -0.117618492499 1775644094.57
 -0.073719018442   0.136382191915 -0.0777304050283 1775644094.58
 -0.111007196091   0.152735103144 -0.0531565926238 1775644094.6
 -0.143468310644   0.153921420086 -0.0451334224511 1775644094.64
 -0.167750741202   0.140070591665 -0.0526130343444 1775644094.66
 -0.182132489119   0.113265872836 -0.0726169915009 1775644094.67
-0.186284540545 0.0771905325143 -0.100884456121 1775644094.69
-0.180804890008 0.0365378913304 -0.132680338777 1775644094.7
  -0.166710430594 -0.00371555422972   -0.163612272693 1775644094.74
 -0.145056218422 -0.0390553756372  -0.190316617057 1775644094.76
-0.116784666283 -0.066074771511 -0.210908079813 1775644094.77
-0.0828156978022 -0.0829204662088   -0.22513714665 1775644094.79
-0.0443024766197 -0.0894709154105  -0.234254843422 1775644094.8
-0.00292141478301  -0.0872206257142   -0.240635512867 1775644094.84
 0.0389457768809 -0.0788916435548  -0.247246192055 1775644094.86
 0.0782454213515 -0.0678399263882  -0.257069126287 1775644094.87
  0.111539345735 -0.0573625403279  -0.272579067379 1775644094.89
  0.135503451659 -0.0500330209024  -0.295351444376 1775644094.9
   0.14752335275 -0.0471903962448  -0.325838871088 1775644094.94
   0.14623359353 -0.0486805853844   -0.36331350471 1775644094.96
  0.131850916434 -0.0529013479852  -0.405943849563 1775644094.97
   0.10619888898 -0.0571430398212  -0.450964886085 1775644094.99
 0.0723981528705 -0.0581593852979  -0.494910115071 1775644095
 0.0342825288475 -0.0528576217479  -0.533895043231 1775644095.03
-0.00432674458353  -0.0389752441295   -0.563960575805 1775644095.06
-0.0403167812232 -0.0156156127315  -0.581489016889 1775644095.07
-0.071779878504 0.0164551137867 -0.583687889798 1775644095.09
-0.0981878420723  0.0547998343441  -0.569099407371 1775644095.1
-0.120198402945   0.09558805447 -0.538047446266 1775644095.13
-0.139141743157  0.134108428892 -0.492897934564 1775644095.16
 -0.15632163361  0.165431847906 -0.438003402852 1775644095.17
-0.172322928297  0.185124258251 -0.379243229655 1775644095.19
-0.186527885166  0.189908448167 -0.323159257728 1775644095.2
-0.197000741075  0.178186445817 -0.275804628442 1775644095.22
-0.200809417482  0.150354064528 -0.241537272005 1775644095.26
-0.194735449697  0.108862576202 -0.222056168712 1775644095.27
-0.176208742776 0.0580076442652 -0.215963744611 1775644095.29
 -0.144225502757 0.00345266832718  -0.219030666524 1775644095.3
-0.0999912736807  -0.048476102065  -0.225161188414 1775644095.32
-0.047086262603 -0.091651211901 -0.227858118633 1775644095.36
0.0089332317502 -0.121055151398 -0.221829730372 1775644095.37
0.0614347393371 -0.133603428172 -0.204321167095 1775644095.39
 0.103908938169 -0.128728611054 -0.175815730418 1775644095.4
 0.131178335869 -0.108590122004 -0.139922408634 1775644095.42
  0.140317554256 -0.0778260851343  -0.102493500549 1775644095.46
  0.131065343843 -0.0428468406166 -0.0702283648014 1775644095.47
  0.105649783981 -0.0107682666538 -0.0491492940062 1775644095.49
 0.0681094246448  0.0118287437712 -0.0433452606735 1775644095.5
 0.0233240866305  0.0200750049391 -0.0542725672526 1775644095.52
